# .PCD v0.7 - Point Cloud Data file format
VERSION 0.7
FIELDS x y z rgb
SIZE 4 4 4 4
TYPE F F F U
COUNT 1 1 1 1
WIDTH 1047
HEIGHT 1
VIEWPOINT 0 0 0 1 0 0 0
POINTS 1047
DATA ascii
1.214828 -0.33618689 0.02742514 4278190335
1.2110035 -0.33777839 0.027041972 4278190335
0.58746618 -0.601309 0.027419597 4278190335
0.58226448 -0.60350788 0.027429253 4278190335
0.57810301 -0.60526699 0.027437001 4278190335
0.57394165 -0.6070261 0.02744472 4278190335
0.56942713 -0.60893446 0.027453095 4278190335
0.56491262 -0.61084282 0.027461499 4278190335
0.56075126 -0.61260188 0.027469218 4278190335
0.5555495 -0.61480075 0.027478874 4278190335
0.55034775 -0.61699963 0.027488559 4278190335
0.54443985 -0.619497 0.027499527 4278190335
0.54131871 -0.62081635 0.027505308 4278190335
0.53715736 -0.62257546 0.027513057 4278190335
0.532996 -0.62433457 0.027520776 4278190335
0.52779418 -0.62653345 0.027530432 4278190335
0.1172334 -0.80013555 0.029073656 4278190335
0.11449766 -0.80139267 0.030639917 4278190335
0.10749155 -0.80420321 0.028311163 4278190335
0.10439944 -0.80558586 0.029487759 4278190335
0.0024737716 -0.84874725 0.030847996 4278190335
-0.00070512295 -0.84994 0.02851212 4278190335
-0.20013979 -0.93430513 0.02981928 4278190335
-0.20491959 -0.93634081 0.030062318 4278190335
-0.20872462 -0.93797445 0.030459702 4278190335
-0.21813892 -0.94185334 0.028916001 4278190335
-0.22120212 -0.94329923 0.031263471 4278190335
-0.34812519 -0.996952 0.031499237 4278190335
-0.35026371 -0.99770498 0.029161423 4278190335
-0.4617936 -1.0455905 0.030033529 4278190335
-0.46717626 -1.0471865 0.03031531 4278190335
-0.4719561 -1.0492221 0.030558348 4278190335
-0.47611749 -1.0509813 0.030566067 4278190335
-0.48090923 -1.0536939 0.030395776 4278190335
-0.48477563 -1.0545413 0.030477107 4278190335
-0.49068242 -1.0571381 0.030593127 4278190335
-0.49484387 -1.0588973 0.030600846 4278190335
-0.49900526 -1.0606563 0.030608594 4278190335
-0.50310767 -1.0630559 0.030642778 4278190335
-0.50836843 -1.0646143 0.030625969 4278190335
-0.51357025 -1.0668132 0.030635655 4278190335
-0.51773161 -1.0685723 0.030643374 4278190335
1.3112752 -0.30009776 0.026480705 4278190335
1.3108587 -0.30342701 0.02631101 4278190335
1.2903941 -0.30979982 0.026713192 4278190335
1.2695947 -0.31887692 0.02709797 4278190335
1.2691925 -0.32209137 0.026934117 4278190335
1.2488773 -0.32732919 0.027635008 4278190335
1.2282016 -0.33506882 0.026703179 4278190335
1.2266541 -0.3383804 0.025859386 4278190335
0.13352865 -0.80172735 0.029247671 4278190335
0.1312573 -0.80006617 0.030900002 4278190335
-0.32935899 -0.99458355 0.02875331 4278190335
-0.45128533 -1.0493693 0.03012991 4278190335
-0.45620763 -1.0497808 0.029747248 4278190335
-0.45856217 -1.0480037 0.029901534 4278190335
-0.47487557 -1.0560123 0.029992223 4278190335
-0.47871339 -1.0572664 0.030222595 4278190335
-0.4974198 -1.0676293 0.030716598 4278190335
-0.49975735 -1.0658495 0.030436754 4278190335
-0.51889163 -1.0758569 0.030037135 4278190335
1.3104422 -0.3067562 0.026141286 4278190335
1.2482846 -0.33206472 0.027393609 4278190335
1.2478895 -0.33522183 0.027232647 4278190335
1.2272317 -0.34281796 0.026308119 4278190335
1.2238455 -0.34328994 0.026547104 4278190335
0.13583702 -0.80346972 0.029096395 4278190335
-0.1956258 -0.94472319 0.031277418 4278190335
-0.19987631 -0.94561189 0.030008823 4278190335
-0.32466805 -0.9982307 0.031452924 4278190335
-0.44870001 -1.0513209 0.029960483 4278190335
-0.45247325 -1.0526086 0.029758155 4278190335
-0.46829665 -1.0609781 0.029561102 4278190335
-0.4724547 -1.0611827 0.030448198 4278190335
-0.47526014 -1.0599009 0.03078565 4278190335
-0.4896909 -1.0692827 0.029399812 4278190335
-0.49418163 -1.0701091 0.031514764 4278190335
-0.51462114 -1.0790802 0.029757321 4278190335
1.2254038 -0.3485623 0.02610296 4278190335
0.55794191 -0.63364011 0.028148502 4278190335
0.53755206 -0.63926291 0.027986854 4278190335
0.51631564 -0.65107656 0.025221735 4278190335
0.37142545 -0.71220583 0.027937591 4278190335
-0.18958054 -0.94921607 0.028896689 4278190335
-0.1926277 -0.9469161 0.029096335 4278190335
-0.19689457 -0.94776905 0.02716729 4278190335
-0.44352919 -1.0552238 0.029621691 4278190335
-0.44611457 -1.0532724 0.029791087 4278190335
-0.46434927 -1.0639576 0.029302478 4278190335
-0.46877074 -1.0648365 0.03141284 4278190335
-0.48567435 -1.0723144 0.029136598 4278190335
-0.49056268 -1.0728663 0.03199929 4278190335
-0.51068676 -1.0820577 0.029722005 4278190335
1.2303011 -0.35085103 0.026822299 4278190335
0.63163871 -0.60376185 0.025532484 4278190335
0.62703484 -0.6057598 0.026341647 4278190335
0.62313217 -0.60743529 0.026749194 4278190335
0.61886412 -0.60923946 0.026757121 4278190335
0.61352891 -0.61149466 0.026767045 4278190335
0.60832196 -0.61366993 0.026376367 4278190335
0.60413271 -0.61546665 0.02678448 4278190335
0.59986466 -0.61727077 0.026792407 4278190335
0.59559649 -0.61907506 0.026800334 4278190335
0.59103841 -0.6209932 0.026675373 4278190335
0.58630437 -0.62299019 0.026617438 4278190335
0.58126348 -0.62513405 0.026826978 4278190335
0.57659715 -0.62710655 0.026835591 4278190335
0.5723291 -0.62891072 0.026843548 4278190335
0.56806093 -0.63071495 0.026851445 4278190335
0.56339478 -0.63268745 0.026860118 4278190335
0.5584023 -0.63486719 0.026945978 4278190335
0.55377334 -0.63698334 0.026945978 4278190335
0.54893136 -0.63878584 0.026646823 4278190335
0.54483962 -0.6405223 0.026761204 4278190335
0.54052526 -0.64235467 0.026902646 4278190335
0.53590047 -0.64473194 0.026883781 4278190335
0.53045386 -0.64661211 0.026921362 4278190335
0.52564603 -0.64861858 0.026529968 4278190335
0.52152598 -0.6503861 0.026937932 4278190335
0.51700902 -0.65244973 0.026576459 4278190335
0.51390755 -0.65465182 0.026714802 4278190335
0.50807542 -0.6560564 0.026722729 4278190335
0.50228977 -0.65844011 0.02577275 4278190335
0.36914968 -0.7147209 0.02602005 4278190335
0.36488158 -0.71652514 0.026027977 4278190335
0.36082059 -0.71824175 0.026035517 4278190335
0.35545623 -0.72131056 0.026002198 4278190335
0.35035741 -0.72266477 0.026054949 4278190335
0.3460893 -0.72446895 0.026062876 4278190335
0.34182119 -0.72627318 0.026070803 4278190335
0.33818495 -0.72781038 0.026077539 4278190335
0.33263224 -0.73015761 0.02608785 4278190335
0.32729703 -0.73241282 0.026097804 4278190335
0.32302892 -0.73421705 0.026105732 4278190335
0.31876081 -0.73602122 0.026113659 4278190335
0.31555974 -0.73737437 0.02611959 4278190335
0.12406045 -0.8190552 0.028906256 4278190335
0.11454403 -0.82234746 0.026492983 4278190335
0.014716983 -0.86470121 0.029080242 4278190335
0.012523562 -0.86547345 0.026682496 4278190335
-0.18658248 -0.95140892 0.026715606 4278190335
-0.20343046 -0.95676124 0.027083635 4278190335
-0.20696743 -0.95830816 0.027890801 4278190335
-0.21050441 -0.95985496 0.028697997 4278190335
-0.22216338 -0.96483499 0.029520243 4278190335
-0.43965107 -1.0581511 0.029367566 4278190335
-0.44949988 -1.0607795 0.027540684 4278190335
-0.45480534 -1.0630995 0.028751463 4278190335
-0.46019277 -1.0656713 0.028817832 4278190335
-0.46420056 -1.0677317 0.029766142 4278190335
-0.46867669 -1.0689633 0.028777212 4278190335
-0.47257918 -1.0706389 0.029184788 4278190335
-0.47718325 -1.0726366 0.029993951 4278190335
-0.48123327 -1.0748941 0.029248893 4278190335
-0.50069451 -1.0854346 0.028677911 4278190335
-0.5051626 -1.0841606 0.029610395 4278190335
-0.51026118 -1.0866193 0.030055374 4278190335
-0.51452923 -1.0884236 0.030063301 4278190335
-0.52023983 -1.0907859 0.029273331 4278190335
0.57754606 -0.63390261 0.026444703 4278190335
0.55680305 -0.64240843 0.026376933 4278190335
0.53613013 -0.65030015 0.026129782 4278190335
0.5152908 -0.65958261 0.026052475 4278190335
0.35754693 -0.72616959 0.0268929 4278190335
0.13112414 -0.82438695 0.028443396 4278190335
0.12876964 -0.82260972 0.028597683 4278190335
-0.20550664 -0.96584511 0.029656529 4278190335
-0.43577299 -1.0610783 0.029113442 4278190335
-0.45736107 -1.0713404 0.029754907 4278190335
-0.46069133 -1.0709348 0.030883461 4278190335
-0.49660867 -1.0885186 0.028410196 4278190335
-0.52179503 -1.0981361 0.029160321 4278190335
-0.81151223 -1.2219044 0.029221535 4278190335
-0.83122146 -1.2315137 0.029881984 4278190335
-0.83366835 -1.2296668 0.030042291 4278190335
0.57696456 -0.63866234 0.026653618 4278190335
0.55632889 -0.64619678 0.026183844 4278190335
0.55601275 -0.64872253 0.026055068 4278190335
0.53535783 -0.65647072 0.025815189 4278190335
0.51468742 -0.66440433 0.025806695 4278190335
0.51423484 -0.66802061 0.025622338 4278190335
0.36401045 -0.73104829 0.02646935 4278190335
0.36124033 -0.72895736 0.026650876 4278190335
0.13421309 -0.82664621 0.026196241 4278190335
-0.45119146 -1.0738894 0.028440267 4278190335
-0.45422786 -1.0758135 0.03045994 4278190335
-0.51474094 -1.1014125 0.029486746 4278190335
-0.51801759 -1.101058 0.030912459 4278190335
-0.53766477 -1.1106049 0.028471649 4278190335
-0.80671084 -1.2255286 0.028906912 4278190335
-0.80911154 -1.2237165 0.029064208 4278190335
-0.82877457 -1.2333608 0.029721648 4278190335
0.59670287 -0.63801187 0.025628597 4278190335
0.57647967 -0.64253694 0.026456118 4278190335
0.57599479 -0.64641148 0.026258618 4278190335
0.55547595 -0.65317798 0.026490241 4278190335
0.53474003 -0.66140717 0.025563538 4278190335
0.53443116 -0.6638754 0.025437742 4278190335
0.51378226 -0.67163682 0.025437981 4278190335
0.36678046 -0.73313922 0.026287854 4278190335
-0.19502445 -0.96952605 0.026727974 4278190335
-0.44461253 -1.0788552 0.028009176 4278190335
-0.44926319 -1.0784883 0.029153228 4278190335
-0.50906354 -1.1035793 0.027903676 4278190335
-0.53255361 -1.1144767 0.028527647 4278190335
-0.53525442 -1.112438 0.028704613 4278190335
-0.80310965 -1.2282467 0.028670937 4278190335
-0.82017142 -1.2357095 0.02935189 4278190335
-0.82510424 -1.2361312 0.029481083 4278190335
-0.84046519 -1.2448343 0.028817773 4278190335
0.65175563 -0.61639893 0.023930252 4278190335
0.64850503 -0.61785251 0.025167227 4278190335
0.64413017 -0.6197018 0.025175363 4278190335
0.63975531 -0.62155116 0.025183469 4278190335
0.63538057 -0.62340045 0.025191605 4278190335
0.6303367 -0.62552124 0.025025129 4278190335
0.62603778 -0.62734985 0.02520895 4278190335
0.62139708 -0.62933135 0.025525331 4278190335
0.61671954 -0.63130468 0.025472462 4278190335
0.61205834 -0.63324326 0.024988741 4278190335
0.60702091 -0.63540447 0.025490493 4278190335
0.60284632 -0.63716918 0.025498241 4278190335
0.59748405 -0.63972712 0.026159257 4278190335
0.5956369 -0.64246207 0.026659578 4278190335
0.57538164 -0.65165061 0.027346224 4278190335
0.55994534 -0.65536773 0.026562661 4278190335
0.55666429 -0.65675467 0.026568741 4278190335
0.55180907 -0.65874356 0.025593042 4278190335
0.54749888 -0.66057616 0.025765151 4278190335
0.54291618 -0.66248685 0.025363356 4278190335
0.5384686 -0.66437578 0.025508374 4278190335
0.53386778 -0.66670811 0.02524519 4278190335
0.5291431 -0.66830891 0.025388956 4278190335
0.52423066 -0.6703856 0.025398076 4278190335
0.51985586 -0.67223489 0.025406182 4278190335
0.51505083 -0.67431808 0.025382191 4278190335
0.51143074 -0.67641222 0.025042087 4278190335
0.50613827 -0.67803359 0.025431663 4278190335
0.50176346 -0.67988288 0.025439799 4278190335
0.49738866 -0.68173224 0.025447935 4278190335
0.49290675 -0.68463945 0.024660379 4278190335
0.48970228 -0.68490195 0.024231285 4278190335
0.3722232 -0.73529208 0.025861621 4278190335
0.36812186 -0.73636699 0.025532842 4278190335
0.36368465 -0.73825133 0.025696278 4278190335
0.35890639 -0.74027115 0.025705159 4278190335
0.35388017 -0.74239588 0.025714457 4278190335
0.34963834 -0.74476731 0.025618404 4278190335
0.34477538 -0.74622869 0.025485218 4278190335
0.34048831 -0.74805689 0.025739372 4278190335
0.33557582 -0.75013345 0.025748491 4278190335
0.33064502 -0.75221789 0.025757641 4278190335
0.32627016 -0.75406718 0.025765777 4278190335
0.32240838 -0.75568372 0.025526762 4278190335
0.31802106 -0.75755423 0.025781095 4278190335
0.31364632 -0.75940353 0.025789231 4278190335
0.30817777 -0.76171523 0.025799394 4278190335
0.30306369 -0.76385057 0.025398582 4278190335
0.11246681 -0.84436643 0.024931997 4278190335
0.10959083 -0.84568805 0.026578575 4278190335
0.03040725 -0.87921339 0.027546257 4278190335
-0.21236339 -0.98167825 0.025535375 4278190335
-0.21633311 -0.98346221 0.02718398 4278190335
-0.4399465 -1.0778819 0.025958091 4278190335
-0.44295391 -1.0796366 0.027323395 4278190335
-0.44727722 -1.081215 0.028067946 4278190335
-0.45194682 -1.083034 0.027211308 4278190335
-0.45632163 -1.0848835 0.027219445 4278190335
-0.460666 -1.0867993 0.028458446 4278190335
-0.52924293 -1.1169893 0.028701633 4278190335
-0.53503793 -1.1182376 0.02859658 4278190335
-0.53979754 -1.1201967 0.027784795 4278190335
-0.54346347 -1.1216935 0.026971012 4278190335
-0.54712951 -1.1231902 0.0261572 4278190335
-0.7969498 -1.2308073 0.027898222 4278190335
-0.79950857 -1.2309649 0.028434962 4278190335
-0.8167088 -1.2383232 0.029124975 4278190335
-0.8202104 -1.2398249 0.02916044 4278190335
0.5955804 -0.64732796 0.026538491 4278190335
0.53350455 -0.67128021 0.025060236 4278190335
0.53304118 -0.67498249 0.024871528 4278190335
0.51242459 -0.68248546 0.024884939 4278190335
0.49162543 -0.69119769 0.023843348 4278190335
0.3751204 -0.7394768 0.02694416 4278190335
0.35528547 -0.74891061 0.025327504 4278190335
0.1287778 -0.84704161 0.026252121 4278190335
-0.20346357 -0.9876498 0.026860446 4278190335
-0.43671787 -1.0848141 0.027491897 4278190335
-0.43934944 -1.0828278 0.027664334 4278190335
-0.52029204 -1.1195699 0.027437061 4278190335
-0.52622277 -1.1192967 0.02928555 4278190335
-0.7935068 -1.2354952 0.028041691 4278190335
-0.80978376 -1.2435503 0.028671205 4278190335
-0.81324625 -1.2409368 0.02889812 4278190335
-0.81650078 -1.2426814 0.030511081 4278190335
-0.83225924 -1.2510551 0.029041827 4278190335
0.61530799 -0.64610565 0.022923529 4278190335
0.5949859 -0.65219361 0.026752055 4278190335
0.53248549 -0.67953104 0.025071174 4278190335
0.51167029 -0.68851256 0.024577737 4278190335
0.49103636 -0.69590455 0.02360338 4278190335
0.49059457 -0.69943464 0.023423404 4278190335
0.35910171 -0.75183463 0.026310325 4278190335
-0.20032415 -0.99001944 0.02665472 4278190335
-0.43277052 -1.0877936 0.027233243 4278190335
-0.51747578 -1.1216955 0.027252525 4278190335
-0.53923213 -1.1338608 0.026610225 4278190335
-0.78822416 -1.2373936 0.027326435 4278190335
-0.80632114 -1.246164 0.02844432 4278190335
0.61476856 -0.65065289 0.02363497 4278190335
0.59445804 -0.65664417 0.027448326 4278190335
0.53183746 -0.6849252 0.025659144 4278190335
0.51106679 -0.69333416 0.024331957 4278190335
0.49015278 -0.70296478 0.023243487 4278190335
-0.4275074 -1.0917664 0.026888341 4278190335
-0.5358367 -1.136438 0.026788652 4278190335
-0.78141797 -1.240442 0.026511371 4278190335
0.66122907 -0.63360512 0.023428589 4278190335
0.65713137 -0.63536447 0.023856521 4278190335
0.65264994 -0.63725889 0.023864836 4278190335
0.64816839 -0.6391533 0.02387318 4278190335
0.6429283 -0.64139545 0.024303228 4278190335
0.63801903 -0.64344364 0.023892015 4278190335
0.6335687 -0.64540619 0.025161266 4278190335
0.62783855 -0.64766574 0.022649974 4278190335
0.62341934 -0.64969653 0.025180101 4278190335
0.61422902 -0.6552003 0.024346411 4278190335
0.54512459 -0.68279314 0.025325537 4278190335
0.54024875 -0.68480003 0.024493963 4278190335
0.53612339 -0.68653303 0.024333507 4278190335
0.53201574 -0.68827391 0.024365008 4278190335
0.5277667 -0.69006556 0.024349034 4278190335
0.52335513 -0.69194114 0.024525344 4278190335
0.51866555 -0.69389641 0.024113715 4278190335
0.51387298 -0.69591331 0.023982525 4278190335
0.50976878 -0.69870478 0.023958564 4278190335
0.50462794 -0.69983053 0.024139792 4278190335
0.50014639 -0.70172495 0.024148136 4278190335
0.49566483 -0.70361942 0.024156451 4278190335
0.49075329 -0.70626861 0.023447663 4278190335
0.48845655 -0.7090342 0.022866845 4278190335
0.3485592 -0.76826763 0.023663819 4278190335
0.34306192 -0.76815462 0.024860233 4278190335
0.34003264 -0.76932669 0.023184568 4278190335
0.33291256 -0.77244496 0.024879068 4278190335
0.32879418 -0.77415878 0.024466425 4278190335
0.32430565 -0.77607238 0.024726957 4278190335
0.32062197 -0.77761334 0.024481595 4278190335
0.3164041 -0.7793963 0.024489433 4278190335
0.31192255 -0.78129071 0.024497747 4278190335
0.30744106 -0.78318512 0.024506062 4278190335
0.04412052 -0.89441431 0.023734242 4278190335
-0.42356002 -1.0947459 0.026629686 4278190335
-0.43092066 -1.0952231 0.024616629 4278190335
-0.43425062 -1.0967121 0.025883764 4278190335
-0.43873215 -1.0986065 0.025892079 4278190335
-0.44321364 -1.1005009 0.025900424 4278190335
-0.44731137 -1.1022602 0.026328355 4278190335
-0.53303689 -1.1385938 0.027808011 4278190335
-0.54289639 -1.14272 0.027346551 4278190335
-0.54592556 -1.143892 0.025670886 4278190335
0.6136896 -0.65974742 0.025057882 4278190335
0.50970918 -0.70418304 0.023778886 4278190335
0.50940746 -0.70659381 0.023655981 4278190335
0.48868012 -0.71473193 0.022643626 4278190335
0.35199928 -0.77093112 0.025332779 4278190335
-0.41961268 -1.0977254 0.026371062 4278190335
0.50880402 -0.71141541 0.023410201 4278190335
0.48823833 -0.71826208 0.022463679 4278190335
-0.41303378 -1.1026913 0.025939941 4278190335
-0.41566536 -1.1007048 0.026112407 4278190335
0.66719908 -0.65219921 0.021492392 4278190335
0.66378969 -0.65372372 0.022789687 4278190335
0.65959448 -0.65552485 0.023227811 4278190335
0.6557923 -0.65718764 0.024095535 4278190335
0.65056747 -0.6592297 0.021523267 4278190335
0.64604312 -0.66130883 0.024113625 4278190335
0.53528762 -0.70796067 0.021737427 4278190335
0.5313375 -0.70979702 0.024326712 4278190335
0.52615035 -0.71192312 0.023303539 4278190335
0.52167696 -0.71381414 0.023311853 4278190335
0.51638812 -0.71601647 0.022805274 4278190335
0.51123285 -0.71821231 0.023073077 4278190335
0.50734723 -0.71879721 0.02309224 4278190335
0.50242823 -0.72190648 0.022659093 4278190335
0.49858338 -0.72347623 0.021805584 4278190335
-0.41040221 -1.1046776 0.025767505 4278190335
-0.42745179 -1.1149842 0.024386346 4278190335
-0.431647 -1.1167853 0.02482447 4278190335
-0.43584222 -1.1185865 0.025262594 4278190335
-0.43964449 -1.1202493 0.026130289 4278190335
-0.53648955 -1.1603495 0.023885041 4278190335
-0.54287952 -1.1638887 0.026322067 4278190335
0.63229197 -0.66790837 0.022530019 4278190335
0.50744629 -0.72226423 0.022857159 4278190335
-0.53264302 -1.1633401 0.026098698 4278190335
0.63132876 -0.67632997 0.024990678 4278190335
0.50669199 -0.72829127 0.022549927 4278190335
-0.42140871 -1.1208229 0.02492553 4278190335
0.50608867 -0.73311299 0.022304118 4278190335
0.50575572 -0.73545563 0.020920336 4278190335
-0.4173921 -1.1238546 0.024662346 4278190335
0.66476601 -0.67441511 0.020652562 4278190335
0.66241866 -0.67540747 0.020656914 4278190335
0.65896279 -0.67703873 0.023305357 4278190335
0.54349768 -0.72584796 0.023519814 4278190335
0.53877014 -0.72776121 0.022207588 4278190335
0.53418434 -0.72972804 0.022656471 4278190335
0.52856052 -0.73210537 0.022666901 4278190335
0.52421325 -0.73382944 0.020913631 4278190335
0.52069211 -0.73531789 0.020920187 4278190335
0.505454 -0.7378664 0.020797431 4278190335
-0.41203663 -1.127897 0.024311423 4278190335
-0.4288567 -1.1367099 0.022683978 4278190335
-0.43311688 -1.1386244 0.024453223 4278190335
-0.43700755 -1.1403259 0.025341123 4278190335
0.52535069 -0.73675805 0.02301687 4278190335
0.52488738 -0.7404604 0.022828132 4278190335
0.52436024 -0.74402308 0.020057559 4278190335
0.20403987 -0.87931621 0.020598382 4278190335
0.20168525 -0.87753886 0.020752668 4278190335
0.22932684 -0.87403709 0.022970378 4278190335
0.20760953 -0.88206488 0.021898031 4278190335
-0.41897747 -1.1471156 0.023323298 4278190335
0.66092545 -0.6972416 0.020055532 4278190335
0.65499014 -0.69992489 0.022768617 4278190335
0.30685574 -0.84697163 0.021613926 4278190335
0.24918568 -0.8712917 0.020820349 4278190335
0.24561781 -0.87288707 0.022177994 4278190335
0.24081624 -0.87491679 0.022186935 4278190335
0.23721504 -0.87643909 0.022193611 4278190335
0.23340261 -0.87790769 0.022258669 4278190335
0.20521826 -0.88996482 0.022253007 4278190335
0.20041668 -0.89199454 0.022261947 4278190335
0.19561499 -0.89402431 0.022270858 4278190335
0.19103968 -0.89591241 0.022251755 4278190335
0.18601179 -0.89808375 0.02228871 4278190335
0.18135393 -0.90004486 0.022174567 4278190335
0.17667627 -0.90202028 0.02215597 4278190335
0.17181402 -0.90408528 0.022315085 4278190335
0.16748154 -0.90591669 0.022323132 4278190335
0.16341114 -0.90763736 0.022330701 4278190335
0.1595217 -0.90926403 0.022067726 4278190335
0.15521544 -0.91110182 0.02234593 4278190335
0.15041375 -0.91313159 0.022354841 4278190335
0.14561212 -0.91516131 0.022363752 4278190335
0.14119953 -0.91699761 0.021921635 4278190335
-0.4162536 -1.1491716 0.023144811 4278190335
-0.43661878 -1.1611941 0.02209422 4278190335
-0.44375446 -1.1643848 0.024809539 4278190335
0.23856044 -0.88100666 0.022365332 4278190335
0.19599819 -0.89778036 0.021847457 4278190335
0.54270488 -0.7547276 0.019326657 4278190335
0.24433142 -0.88536257 0.02198717 4278190335
0.24202299 -0.88362032 0.022138417 4278190335
0.19959927 -0.90049851 0.021611482 4278190335
-0.4245764 -1.1673512 0.022367537 4278190335
0.24779403 -0.88797629 0.021760285 4278190335
0.22766107 -0.89725423 0.022117704 4278190335
0.22530651 -0.895477 0.022271991 4278190335
0.20320034 -0.90321672 0.021375507 4278190335
0.18529171 -0.91418505 0.021917939 4278190335
0.18280548 -0.91225213 0.020487159 4278190335
0.60212833 -0.74349284 0.022562891 4278190335
0.58978921 -0.74853069 0.01982373 4278190335
0.31863803 -0.86324048 0.021708429 4278190335
0.31412733 -0.86511749 0.021256477 4278190335
0.26661134 -0.885144 0.020424038 4278190335
0.26296425 -0.88677484 0.021811843 4278190335
0.25805593 -0.88884968 0.021820933 4278190335
0.25328678 -0.89139384 0.021680743 4278190335
0.24985301 -0.89184576 0.02143991 4278190335
0.24497849 -0.89437771 0.021845281 4278190335
0.24007022 -0.89645255 0.021854371 4278190335
0.23579252 -0.89830536 0.022552848 4278190335
0.23132628 -0.90013093 0.021594405 4278190335
0.22625124 -0.90230685 0.022077352 4278190335
0.22169846 -0.90421861 0.021888465 4278190335
0.21843761 -0.90562671 0.022354871 4278190335
0.21437013 -0.9074055 0.023283154 4278190335
0.18856728 -0.9166764 0.022234559 4278190335
0.17832971 -0.9226405 0.02335012 4278190335
0.17461425 -0.92412204 0.021975935 4278190335
0.17012644 -0.92601907 0.021984279 4278190335
0.165241 -0.92811394 0.022453725 4278190335
0.16143107 -0.92972445 0.022460818 4278190335
0.15741444 -0.93140543 0.022205204 4278190335
0.15231597 -0.93353009 0.021741152 4278190335
0.14807349 -0.9353413 0.022025228 4278190335
0.14439225 -0.93689746 0.022032082 4278190335
0.13948387 -0.93897229 0.022041202 4278190335
0.13576853 -0.94045371 0.020667076 4278190335
-0.46052551 -1.1926966 0.024536788 4278190335
0.25702757 -0.89494592 0.021155238 4278190335
0.2616443 -0.89843065 0.020852715 4278190335
0.17921865 -0.93397897 0.018617719 4278190335
0.26510698 -0.90104437 0.02062583 4278190335
0.18179178 -0.93603593 0.021696687 4278190335
0.33860898 -0.87594306 0.020166516 4278190335
0.33603173 -0.87685043 0.017349184 4278190335
0.32941997 -0.87982744 0.020183593 4278190335
0.32562387 -0.8813411 0.018779546 4278190335
0.32186258 -0.88293105 0.01878655 4278190335
0.28253275 -0.89946544 0.017448545 4278190335
0.28006017 -0.90060169 0.018864185 4278190335
0.27629888 -0.90219164 0.018871188 4278190335
0.26992673 -0.90398479 0.01963973 4278190335
0.26626879 -0.90643156 0.018889815 4278190335
0.26143014 -0.9084639 0.018697232 4278190335
0.25716931 -0.91029632 0.019188911 4278190335
0.25206476 -0.91243589 0.01891619 4278190335
0.2483384 -0.91410214 0.020334214 4278190335
0.24244618 -0.91647148 0.018463701 4278190335
0.23914939 -0.91798651 0.020351261 4278190335
0.15806776 -0.95226121 0.020501882 4278190335
0.15552533 -0.95324492 0.01909551 4278190335
0.151187 -0.95509702 0.019385785 4278190335
0.14633632 -0.95712924 0.019112587 4278190335
0.14257509 -0.95871925 0.019119561 4278190335
0.13756001 -0.96083915 0.019128889 4278190335
0.13295126 -0.96275705 0.018667072 4278190335
-0.4754931 -1.2200793 0.021678716 4278190335
0.27318627 -0.9071427 0.020096421 4278190335
0.27780312 -0.9106276 0.019793898 4278190335
0.17571634 -0.95589066 0.020170748 4278190335
0.2835741 -0.91498363 0.019415736 4278190335
0.28126574 -0.91324109 0.019567013 4278190335
0.33707052 -0.89778078 0.019325078 4278190335
0.33360851 -0.89912033 0.01741001 4278190335
0.2918061 -0.91679102 0.017487675 4278190335
0.28751856 -0.91804498 0.01906234 4278190335
0.2828787 -0.92065769 0.018945366 4278190335
0.27775699 -0.92282271 0.018954873 4278190335
0.27313274 -0.92475885 0.018675238 4278190335
0.26993561 -0.92615998 0.01944977 4278190335
0.26536685 -0.92806023 0.01897788 4278190335
0.26156116 -0.92976201 0.020426035 4278190335
0.255099 -0.93236971 0.0185166 4278190335
0.25173193 -0.93391699 0.020444304 4278190335
0.1514082 -0.97623271 0.019189566 4278190335
0.14417547 -0.97938317 0.020644099 4278190335
0.14029855 -0.98092896 0.01921019 4278190335
0.13517678 -0.98309404 0.019219697 4278190335
0.2928077 -0.92195314 0.018810689 4278190335
0.29049927 -0.92021072 0.018961966 4278190335
0.29627025 -0.92456675 0.018583834 4278190335
0.30088711 -0.92805165 0.018281311 4278190335
-0.63548988 -1.3262308 0.021158606 4278190335
0.34790289 -0.91433895 0.017680019 4278190335
0.30550373 -0.93153626 0.017978758 4278190335
0.30041856 -0.93441141 0.017768204 4278190335
0.2951901 -0.93662161 0.01777792 4278190335
0.28996164 -0.93883175 0.017787635 4278190335
0.28604031 -0.94048941 0.017794937 4278190335
0.28226173 -0.94208664 0.01780194 4278190335
0.27645117 -0.94454288 0.017812729 4278190335
0.26686203 -0.94859642 0.017830551 4278190335
-0.6321196 -1.3287747 0.020937771 4278190335
-0.63577437 -1.3300737 0.018517524 4278190335
-0.64027244 -1.3320591 0.019515544 4278190335
0.3097235 -0.93470365 0.017201096 4278190335
-0.62801802 -1.333205 0.019271255 4278190335
-0.63224244 -1.3327396 0.018286109 4278190335
0.31354606 -0.93755358 0.015948296 4278190335
-0.62757123 -1.3362111 0.016446441 4278190335
0.74569744 -0.76726657 0.014475554 4278190335
0.74036235 -0.76952177 0.014485478 4278190335
0.73502725 -0.77177703 0.014495373 4278190335
0.7301659 -0.77383202 0.014504403 4278190335
0.72689575 -0.77521437 0.014510483 4278190335
0.72276574 -0.77696019 0.014518172 4278190335
0.71730191 -0.77926987 0.014528304 4278190335
0.71183819 -0.78157949 0.014538467 4278190335
0.70770818 -0.78332531 0.014546126 4278190335
0.70443803 -0.78470773 0.014552206 4278190335
0.69957668 -0.78676265 0.014561236 4278190335
0.69424158 -0.78901792 0.01457113 4278190335
0.68890637 -0.79127318 0.014581054 4278190335
0.36753821 -0.92731524 0.018180281 4278190335
0.36479646 -0.92828053 0.015183091 4278190335
-0.63287532 -1.350015 0.017036259 4278190335
-0.63683957 -1.3517877 0.018544793 4278190335
-0.64217472 -1.354043 0.018554688 4278190335
-0.6461761 -1.3557343 0.018562108 4278190335
-0.64880657 -1.3569432 0.020068139 4278190335
-0.63042241 -1.3565042 0.016986281 4278190335
-0.63385844 -1.3559996 0.017580539 4278190335
0.71489567 -0.79393566 0.013734519 4278190335
0.69428569 -0.80163568 0.014731377 4278190335
-0.62597084 -1.3577756 0.016325504 4278190335
-0.62785667 -1.3605299 0.017187268 4278190335
0.71436387 -0.79858506 0.015093029 4278190335
0.69372529 -0.80611289 0.014503151 4278190335
0.69335181 -0.80909771 0.014350981 4278190335
0.67279464 -0.81563431 0.012456924 4278190335
-0.62118244 -1.3627824 0.016257823 4278190335
-0.62425554 -1.363248 0.016951293 4278190335
0.78862959 -0.7702089 0.01205036 4278190335
0.78458601 -0.772017 0.013589025 4278190335
0.77914411 -0.77431738 0.013599128 4278190335
0.77506286 -0.77604264 0.013606727 4278190335
0.77047902 -0.77796608 0.013396502 4278190335
0.76575762 -0.77997595 0.013624012 4278190335
0.76189429 -0.78160906 0.013631195 4278190335
0.75702363 -0.78366798 0.013640225 4278190335
0.75208551 -0.78575546 0.013649434 4278190335
0.7480945 -0.78744251 0.013656825 4278190335
0.74306589 -0.78956819 0.013666183 4278190335
0.73848099 -0.79150635 0.013674676 4278190335
0.73447257 -0.79366904 0.013635933 4278190335
0.72946137 -0.79531908 0.013691425 4278190335
0.72443289 -0.7974447 0.013700753 4278190335
0.7199381 -0.79934472 0.013709098 4278190335
0.7151683 -0.80156207 0.013907969 4278190335
0.71125895 -0.8036949 0.013889283 4278190335
0.70633346 -0.80509567 0.01373437 4278190335
0.70183879 -0.80699563 0.013742745 4278190335
0.69733804 -0.80888724 0.013580978 4278190335
0.6931079 -0.81128758 0.013669521 4278190335
0.68829447 -0.81272107 0.013767928 4278190335
0.68285257 -0.81502146 0.013778031 4278190335
0.6786409 -0.81676894 0.013275445 4278190335
0.67403978 -0.81890959 0.013566077 4278190335
0.66990215 -0.82162637 0.013740927 4278190335
0.66481358 -0.82264704 0.013811499 4278190335
0.66069442 -0.82428944 0.012288004 4278190335
-0.47286978 -1.3062911 0.016500533 4278190335
-0.47498068 -1.3046498 0.015285701 4278190335
-0.49409714 -1.3147489 0.017104059 4278190335
-0.61572158 -1.3655119 0.015653908 4278190335
-0.62945145 -1.3697242 0.015705198 4278190335
-0.63442719 -1.3718605 0.016224831 4278190335
-0.63850856 -1.3735857 0.016232431 4278190335
-0.64119166 -1.3748187 0.017768562 4278190335
0.73391098 -0.79941714 0.013811767 4278190335
0.73352295 -0.8025167 0.013653785 4278190335
0.71303135 -0.80923283 0.014550239 4278190335
0.69223112 -0.81805217 0.013894528 4278190335
0.67136711 -0.82742679 0.013391107 4278190335
-0.46975344 -1.3086433 0.016296327 4278190335
-0.48920584 -1.3184507 0.01706022 4278190335
-0.61230516 -1.3680905 0.015430063 4278190335
0.75376397 -0.79824978 0.014408588 4278190335
0.73294109 -0.80716622 0.013416767 4278190335
0.7126506 -0.81227505 0.014395148 4278190335
0.71226984 -0.81531733 0.014240086 4278190335
0.69167084 -0.82252961 0.013666272 4278190335
0.67063433 -0.8332817 0.013092637 4278190335
-0.46455961 -1.3125637 0.015956014 4278190335
-0.48495835 -1.3216568 0.016781896 4278190335
-0.50530553 -1.3306974 0.015018404 4278190335
-0.52614439 -1.3394564 0.015813023 4278190335
0.75317138 -0.80298549 0.01416719 4278190335
0.73239928 -0.81190312 0.014800906 4278190335
0.71177524 -0.81940228 0.01456368 4278190335
0.69092375 -0.8284992 0.013361961 4278190335
0.67008477 -0.83767283 0.012868792 4278190335
0.66971844 -0.84060025 0.012719572 4278190335
-0.45832691 -1.3172683 0.015547574 4278190335
-0.46040446 -1.3157001 0.01568374 4278190335
-0.47564098 -1.3245096 0.015373051 4278190335
-0.48071092 -1.3248627 0.016503602 4278190335
-0.49988076 -1.3347923 0.014662951 4278190335
-0.50205064 -1.3331544 0.014805108 4278190335
-0.52206981 -1.3425491 0.016027123 4278190335
-0.62280405 -1.3846849 0.016419142 4278190335
-0.62648475 -1.3860704 0.016997576 4278190335
0.80544621 -0.78440005 0.012916118 4278190335
0.80128485 -0.78615916 0.012923837 4278190335
0.79712349 -0.78791821 0.012931585 4278190335
0.79110831 -0.79046094 0.012942761 4278190335
0.78740722 -0.79202551 0.012949616 4278190335
0.78323942 -0.79378724 0.012957364 4278190335
0.77907807 -0.79554635 0.012965083 4278190335
0.77351695 -0.7978971 0.012975425 4278190335
0.77074271 -0.79906988 0.01298058 4278190335
0.75257868 -0.8077209 0.013925791 4278190335
0.70418519 -0.82720494 0.0131042 4278190335
0.70002383 -0.82896405 0.013111919 4278190335
0.69585615 -0.83072585 0.013119668 4278190335
0.69118863 -0.83314621 0.013104141 4278190335
0.6856733 -0.83503032 0.013138622 4278190335
0.68197221 -0.83659482 0.013145477 4278190335
0.67781073 -0.83835393 0.013153195 4278190335
0.67272252 -0.84050483 0.013162673 4278190335
0.66895396 -0.84448546 0.01263082 4278190335
0.6639331 -0.84422028 0.013178974 4278190335
0.65838462 -0.84656572 0.013189286 4278190335
-0.45521054 -1.3196204 0.015343398 4278190335
-0.46519661 -1.3215245 0.015276343 4278190335
-0.46935806 -1.3232837 0.015284061 4278190335
-0.47406876 -1.3269413 0.015612453 4278190335
-0.47829664 -1.3273278 0.015798479 4278190335
-0.48322943 -1.3291473 0.015309811 4278190335
-0.48739085 -1.3309065 0.015317559 4278190335
-0.49293935 -1.333252 0.015327871 4278190335
-0.49672091 -1.3368014 0.014626861 4278190335
-0.50126225 -1.3367702 0.015343308 4278190335
-0.50681072 -1.3391156 0.01535362 4278190335
-0.51097214 -1.3408748 0.015361369 4278190335
-0.51583159 -1.3446823 0.015516609 4278190335
-0.51971388 -1.3450187 0.015594363 4278190335
-0.52484351 -1.3467385 0.015387118 4278190335
-0.52900499 -1.3484975 0.015394866 4278190335
-0.53455347 -1.350843 0.015405148 4278190335
-0.53859347 -1.3536162 0.015596092 4278190335
-0.61587882 -1.3899121 0.015965372 4278190335
-0.62166011 -1.3886431 0.015800238 4278190335
-0.63165307 -1.3918889 0.015585512 4278190335
-0.63581449 -1.3936479 0.015593261 4278190335
0.7724449 -0.80607074 0.013042003 4278190335
0.66861933 -0.84938264 0.012271851 4278190335
0.66825289 -0.85231012 0.012122631 4278190335
-0.44522595 -1.3229736 0.013800621 4278190335
-0.44945088 -1.3225735 0.014669776 4278190335
-0.45209423 -1.3219727 0.015139192 4278190335
-0.46779236 -1.3304337 0.014858752 4278190335
-0.47221601 -1.3312747 0.015946954 4278190335
-0.48990285 -1.3396198 0.015812337 4278190335
-0.49333626 -1.339782 0.015647411 4278190335
-0.5096963 -1.3476557 0.012914509 4278190335
-0.51320553 -1.3492398 0.015446305 4278190335
-0.53168535 -1.3597528 0.015334576 4278190335
-0.5350787 -1.3571916 0.015556931 4278190335
-0.61241621 -1.3925259 0.015738457 4278190335
0.77204257 -0.80928516 0.01287812 4278190335
0.77164036 -0.81249952 0.012714267 4278190335
0.66770333 -0.8567012 0.011898786 4278190335
0.31012273 -1.0084654 0.015331924 4278190335
-0.42481044 -1.3180847 0.014102697 4278190335
-0.44213271 -1.3253084 0.013597906 4278190335
-0.44690031 -1.325893 0.01479888 4278190335
-0.46541142 -1.3353783 0.015647322 4278190335
-0.46903044 -1.3336793 0.015738189 4278190335
-0.48449263 -1.3423263 0.015652806 4278190335
-0.50318092 -1.352648 0.014592499 4278190335
-0.50681841 -1.3513055 0.015377611 4278190335
-0.5098815 -1.3517488 0.01522848 4278190335
-0.52829206 -1.3623142 0.015112221 4278190335
0.66715378 -0.86109245 0.011674941 4278190335
-0.4207477 -1.3211514 0.013836503 4278190335
-0.4359462 -1.329978 0.013192564 4278190335
-0.44034204 -1.3300067 0.014191419 4278190335
-0.44378406 -1.3282453 0.014594644 4278190335
-0.4583742 -1.3375428 0.014241636 4278190335
-0.46156326 -1.3393646 0.01663211 4278190335
-0.47812158 -1.3471353 0.015235305 4278190335
-0.48130712 -1.3447309 0.01544404 4278190335
-0.49994916 -1.3550874 0.014380723 4278190335
-0.52356786 -1.3637848 0.014253169 4278190335
-0.54521161 -1.373958 0.013575166 4278190335
-0.62286597 -1.4091618 0.01684463 4278190335
0.82270962 -0.79831517 0.012430042 4278190335
0.81846827 -0.80010808 0.01243788 4278190335
0.81329733 -0.80232811 0.012977898 4278190335
0.808752 -0.80421531 0.01245597 4278190335
0.80469102 -0.80593199 0.01246351 4278190335
0.80048889 -0.8078109 0.014062494 4278190335
0.79511589 -0.80987686 0.010890067 4278190335
0.79236692 -0.81124419 0.014077604 4278190335
0.69359452 -0.8529287 0.013200253 4278190335
0.6890021 -0.85486996 0.013208777 4278190335
0.68532604 -0.85635549 0.012154818 4278190335
0.68007284 -0.8586309 0.013013214 4278190335
0.67533201 -0.86061442 0.012703806 4278190335
0.67164642 -0.86215186 0.012392402 4278190335
0.66655129 -0.86491603 0.012085646 4278190335
0.66084296 -0.86673921 0.012730688 4278190335
0.65660161 -0.86853218 0.012738585 4278190335
0.65373462 -0.86964136 0.011152685 4278190335
0.29955953 -1.0193578 0.011810571 4278190335
-0.41770071 -1.3234513 0.013636798 4278190335
-0.42641857 -1.3262423 0.013159066 4278190335
-0.43065998 -1.3280352 0.013166964 4278190335
-0.43419236 -1.3307137 0.014173895 4278190335
-0.4378081 -1.3327205 0.01444599 4278190335
-0.44334498 -1.3335001 0.014781743 4278190335
-0.44758639 -1.3352931 0.014789611 4278190335
-0.45332634 -1.3383664 0.014626682 4278190335
-0.45748311 -1.3394766 0.014807999 4278190335
-0.46172452 -1.3412695 0.014815867 4278190335
-0.46737981 -1.3436601 0.014826357 4278190335
-0.47158194 -1.345539 0.016425371 4278190335
-0.47582334 -1.3473319 0.016433239 4278190335
-0.49666551 -1.3576403 0.016270459 4278190335
-0.5173201 -1.3664054 0.01329425 4278190335
-0.52672064 -1.3688471 0.016527802 4278190335
-0.53096211 -1.3706402 0.01653567 4278190335
-0.53520352 -1.3724331 0.016543537 4278190335
-0.54078466 -1.3756665 0.01489985 4278190335
-0.54400277 -1.3761562 0.014947891 4278190335
-0.54892278 -1.3780956 0.014447421 4278190335
-0.61935723 -1.41181 0.016614705 4278190335
-0.63283527 -1.4134985 0.013542503 4278190335
-0.63655299 -1.4152069 0.015671015 4278190335
0.79033846 -0.82021213 0.011473626 4278190335
0.66605467 -0.86987466 0.01122725 4278190335
0.66568834 -0.87280214 0.01107803 4278190335
-0.40792909 -1.3266366 0.011897475 4278190335
-0.43183795 -1.3364258 0.013634175 4278190335
-0.4505257 -1.3434669 0.013727337 4278190335
-0.53746754 -1.3798743 0.015072376 4278190335
-0.61596119 -1.4142119 0.011821538 4278190335
0.6651389 -0.87719321 0.010854185 4278190335
-0.40330958 -1.3301936 0.013579428 4278190335
-0.42511991 -1.3381499 0.01248315 4278190335
-0.42820242 -1.3400065 0.013573647 4278190335
-0.44738626 -1.3458366 0.013521641 4278190335
-0.52831101 -1.3826176 0.01401487 4278190335
-0.5335955 -1.3828324 0.01582101 4278190335
1.3095236 -0.61361456 0.009090215 4278190335
1.3042552 -0.61587644 0.0096404254 4278190335
1.2999337 -0.6177032 0.0096484721 4278190335
1.2956121 -0.61953002 0.0096564889 4278190335
0.69208735 -0.87475574 0.012398779 4278190335
0.68819267 -0.87626272 0.01024434 4278190335
0.68191141 -0.87898761 0.011336833 4278190335
0.67805666 -0.88058221 0.01080361 4278190335
0.67394239 -0.88232142 0.010811239 4278190335
0.669828 -0.88406068 0.010818899 4278190335
0.66495627 -0.88446778 0.010691315 4278190335
0.65974456 -0.88832307 0.010837615 4278190335
0.65538305 -0.89006221 0.0092244744 4278190335
0.16857797 -1.096053 0.013371199 4278190335
-0.39510742 -1.3342288 0.012796998 4278190335
-0.39896894 -1.3344475 0.013121605 4278190335
-0.4038296 -1.337881 0.012272775 4278190335
-0.40909803 -1.3401428 0.012822986 4278190335
-0.41341951 -1.3419696 0.012831002 4278190335
-0.41828877 -1.3433675 0.012707025 4278190335
-0.42303818 -1.3444195 0.013749719 4278190335
-0.42638391 -1.3474499 0.012855083 4278190335
-0.43214586 -1.3498856 0.012865812 4278190335
-0.4364273 -1.3518 0.014494985 4278190335
-0.43930826 -1.3530178 0.01450035 4278190335
-0.54751611 -1.3966378 0.011200726 4278190335
-0.55166638 -1.4005138 0.014709026 4278190335
-0.55556107 -1.4020207 0.012554616 4278190335
-0.63817585 -1.4368738 0.011627257 4278190335
-0.64097667 -1.4382669 0.014874935 4278190335
0.66385657 -0.88743925 0.010331869 4278190335
0.66349012 -0.89036667 0.010182649 4278190335
-0.39416832 -1.3370936 0.012980402 4278190335
-0.41584015 -1.3451545 0.011875063 4278190335
-0.5427314 -1.4003578 0.013954341 4278190335
-0.54512376 -1.3984978 0.012577534 4278190335
0.80823511 -0.83436006 0.010025352 4278190335
0.66294068 -0.89475781 0.0099588037 4278190335
-0.3880741 -1.3416936 0.01258108 4278190335
-0.39112124 -1.3393935 0.012780756 4278190335
-0.41120026 -1.3486567 0.01157102 4278190335
0.66239113 -0.89914906 0.0097349286 4278190335
0.66202468 -0.90207648 0.0095857084 4278190335
1.3340108 -0.62453204 0.0094613731 4278190335
1.3310766 -0.62577248 0.0094668269 4278190335
1.3266752 -0.62763304 0.0094750226 4278190335
1.3222735 -0.62949359 0.0094831884 4278190335
1.3193393 -0.63073403 0.0094886422 4278190335
0.69432718 -0.89493829 0.010649592 4278190335
0.68567175 -0.89859712 0.010665685 4278190335
0.68273741 -0.89983755 0.010671139 4278190335
0.6770162 -0.90225601 0.010681748 4278190335
0.67261475 -0.90411657 0.010689914 4278190335
0.66821319 -0.90597719 0.01069811 4278190335
0.66223592 -0.9066174 0.0096302032 4278190335
-0.38212803 -1.3475626 0.012337744 4278190335
-0.3868255 -1.3519617 0.012657851 4278190335
-0.39115325 -1.3537912 0.012665868 4278190335
-0.39555475 -1.3556519 0.012674063 4278190335
-0.40090972 -1.3579154 0.012683988 4278190335
-0.40575117 -1.359962 0.012692988 4278190335
-0.40868545 -1.3612024 0.012698442 4278190335
-0.549833 -1.4194231 0.012074679 4278190335
-0.64636612 -1.4616745 0.013139933 4278190335
0.66079086 -0.91180682 0.008577913 4278190335
-0.54056036 -1.4222443 0.010728925 4278190335
-0.54743218 -1.4212353 0.011917353 4278190335
1.3478842 -0.63980454 0.0078107119 4278190335
1.3448966 -0.64106745 0.0078162551 4278190335
0.69314283 -0.91657597 0.009026885 4278190335
0.68374044 -0.92055053 0.0090443492 4278190335
0.679259 -0.92244494 0.0090526938 4278190335
-0.37495285 -1.36808 0.011010885 4278190335
-0.37943435 -1.3699745 0.0110192 4278190335
-0.38456029 -1.3721412 0.011028707 4278190335
-0.3888368 -1.3739491 0.011036664 4278190335
-0.3933183 -1.3758434 0.011045009 4278190335
-0.55913454 -1.445937 0.011352986 4278190335
-0.54860514 -1.444836 0.011363178 4278190335
-0.37297386 -1.3883883 0.0095023811 4278190335
-0.37601492 -1.3896738 0.0095080435 4278190335
-0.37905589 -1.3909593 0.0095136762 4278190335
-0.38648435 -1.3940995 0.0095274746 4278190335
0.39323848 -1.0710895 0.0066982806 4278190335
-0.54989976 -1.4682367 0.0077498257 4278190335
0.3969481 -1.073946 0.008048892 4278190335
0.37617064 -1.0826408 0.0057122111 4278190335
0.42046618 -1.0672115 0.0071389079 4278190335
0.40061843 -1.0767164 0.0078083873 4278190335
0.37995017 -1.0855509 0.0070883036 4278190335
1.0809078 -0.79495788 0.0054170787 4278190335
1.0772107 -0.79652071 0.0054239631 4278190335
1.0731719 -0.79822803 0.0054314435 4278190335
1.0687907 -0.80008 0.0054395795 4278190335
1.0638885 -0.80215228 0.005448699 4278190335
1.0589864 -0.80422443 0.0054577887 4278190335
1.0546055 -0.80607641 0.0054659247 4278190335
1.0492127 -0.80783117 0.0055645406 4278190335
1.0462649 -0.81071746 0.0055114627 4278190335
1.0406809 -0.8119626 0.0054917932 4278190335
0.42646801 -1.0717418 0.0067456365 4278190335
0.42406726 -1.0699297 0.0069029331 4278190335
0.40428883 -1.0794868 0.0075678825 4278190335
0.39833575 -1.0834938 0.0066849589 4278190335
0.39524138 -1.0848019 0.0066907108 4278190335
0.39059973 -1.086764 0.0066993237 4278190335
0.38594031 -1.0895458 0.0066941679 4278190335
0.38229012 -1.089902 0.006752193 4278190335
0.37731838 -1.0923783 0.006724 4278190335
0.37244707 -1.0944375 0.0067330599 4278190335
0.36803526 -1.0963025 0.0067412555 4278190335
0.36323988 -1.0982552 0.0069349408 4278190335
0.35875207 -1.1002266 0.0067584813 4278190335
0.35433024 -1.1020958 0.0067667067 4278190335
0.35003072 -1.1039133 0.0067746937 4278190335
0.34504706 -1.10602 0.0067839324 4278190335
0.34074754 -1.1078374 0.0067919195 4278190335
0.3354218 -1.1100887 0.0068018138 4278190335
0.33078021 -1.1120509 0.0068104565 4278190335
0.32613868 -1.114013 0.0068190694 4278190335
-0.36890098 -1.4050783 0.0083787739 4278190335
-0.38144889 -1.4131234 0.0081334114 4278190335
1.0674727 -0.80648959 0.0044024885 4278190335
1.0467045 -0.8154524 0.0053349733 4278190335
0.43006909 -1.07446 0.0065096617 4278190335
0.41040611 -1.0841042 0.0071670413 4278190335
0.40795916 -1.0822573 0.0073274076 4278190335
0.3899225 -1.0930783 0.0064348578 4278190335
0.36869788 -1.1015556 0.0075253844 4278190335
0.3661586 -1.0996388 0.0076917708 4278190335
1.0669627 -0.81056499 0.0041947365 4278190335
1.0462017 -0.81947041 0.005130142 4278190335
1.0252664 -0.82978547 0.006053865 4278190335
0.43487054 -1.0780841 0.0061950386 4278190335
0.41407639 -1.0868746 0.0069265366 4278190335
0.39366204 -1.0959008 0.0061898232 4278190335
0.37250668 -1.1044304 0.0072758198 4278190335
0.35182208 -1.1132622 0.0068274438 4278190335
1.0868158 -0.80947131 0.005088836 4278190335
1.0664527 -0.8146404 0.0039869845 4278190335
1.0455484 -0.82486582 0.0055575073 4278190335
1.0245228 -0.83572644 0.0057510138 4278190335
0.41897017 -1.0905685 0.0066058636 4278190335
0.39619523 -1.0978703 0.0076476336 4278190335
0.37758517 -1.1082637 0.006943047 4278190335
0.35828555 -1.1181408 0.0064038932 4278190335
0.35570014 -1.1161895 0.0065733194 4278190335
0.33698058 -1.1265087 0.0061164796 4278190335
1.0862985 -0.81360412 0.0048781633 4278190335
1.044745 -0.83163822 0.0066171587 4278190335
1.0344291 -0.83576566 0.0042387545 4278190335
1.0292211 -0.83796716 0.0042484105 4278190335
1.0248964 -0.8396765 0.0045791864 4278190335
1.0206649 -0.84158403 0.0042643249 4278190335
1.015743 -0.84366459 0.0042734742 4278190335
1.0114219 -0.84549117 0.004281491 4278190335
0.43890625 -1.0875043 0.0053449273 4278190335
0.42508739 -1.095186 0.0062050521 4278190335
0.42249203 -1.0937489 0.0060355663 4278190335
0.41747308 -1.0965645 0.0053847432 4278190335
0.4127515 -1.0985605 0.0053935051 4278190335
0.40823019 -1.1004716 0.0054019094 4278190335
0.40370893 -1.1023829 0.0054103136 4278190335
0.39967412 -1.1040884 0.005417794 4278190335
0.39446604 -1.10629 0.0054274797 4278190335
0.36087102 -1.1200924 0.0062344968 4278190335
0.35706514 -1.1221001 0.005496949 4278190335
0.35234356 -1.1240959 0.0055057108 4278190335
0.34802258 -1.1259226 0.0055137575 4278190335
0.34281486 -1.1285472 0.0055728555 4278190335
0.33894622 -1.1295627 0.0056135356 4278190335
0.33405817 -1.1318256 0.0055396855 4278190335
0.32933652 -1.1338215 0.0055484474 4278190335
0.32515866 -1.1355876 0.0055562258 4278190335
0.32068026 -1.1374806 0.0055645406 4278190335
0.31557238 -1.1396399 0.0055740178 4278190335
0.31065041 -1.1417204 0.0055831671 4278190335
0.30632949 -1.1435469 0.0055911839 4278190335
1.0232835 -0.84562814 0.0052462816 4278190335
0.42879713 -1.0980424 0.0075556934 4278190335
0.3448754 -1.1324677 0.0055991411 4278190335
0.32565093 -1.1424102 0.0052956641 4278190335
1.1056664 -0.81642032 0.0056933761 4278190335
1.0225401 -0.85156894 0.0049434304 4278190335
0.43369085 -1.1017362 0.0072349906 4278190335
0.34750688 -1.134454 0.0054267347 4278190335
0.32966757 -1.1454419 0.0050324798 4278190335
1.1051421 -0.82061052 0.005479753 4278190335
1.0217967 -0.85751003 0.0046405494 4278190335
0.33368421 -1.1484736 0.0047692657 4278190335
1.027694 -0.85978079 0.0031067133 4278190335
1.0228922 -0.86181051 0.0031156242 4278190335
1.0188489 -0.86369246 0.0033668876 4278190335
1.0134962 -0.86578244 0.0031330884 4278190335
1.0092971 -0.86755747 0.0031408668 4278190335
0.45268476 -1.1028479 0.0041747689 4278190335
0.44788313 -1.1048776 0.0041837096 4278190335
0.4430815 -1.1069074 0.0041926205 4278190335
0.43788445 -1.1091043 0.0042022765 4278190335
0.43368536 -1.1108793 0.0042100847 4278190335
0.42909086 -1.1128215 0.0042186081 4278190335
0.41990185 -1.1167059 0.0042356849 4278190335
0.31810689 -1.1606425 0.0043757856 4278190335
0.31364465 -1.1616228 0.0044330359 4278190335
0.30984098 -1.1632307 0.0044401288 4278190335
0.30424851 -1.1655947 0.0044505 4278190335
0.29965401 -1.1675369 0.0044590235 4278190335
0.29545492 -1.1693119 0.0044668317 4278190335
0.29165131 -1.1709198 0.0044738948 4278190335
0.2870568 -1.1728619 0.0044824481 4278190335
-0.401591 -1.4639663 0.0057615936 4278190335
1.1244245 -0.8230207 0.0019806921 4278190335
1.0203097 -0.86939204 0.004034847 4278190335
0.32212651 -1.1642073 0.004083693 4278190335
1.0195661 -0.87533289 0.0037319958 4278190335
0.30743259 -1.177578 0.0037238896 4278190335
1.0190704 -0.87929362 0.0035301149 4278190335
1.018575 -0.88325429 0.0033282042 4278190335
0.45693642 -1.1192824 0.0057117939 4278190335
0.45448947 -1.1174353 0.0058721304 4278190335
0.3102026 -1.1796688 0.0035423636 4278190335
1.1427693 -0.83405483 0.0025575757 4278190335
1.0250967 -0.88205457 0.0020870864 4278190335
1.0218422 -0.8834303 0.0020931363 4278190335
1.0172303 -0.88592815 0.002358228 4278190335
1.0120528 -0.88756847 0.0021113157 4278190335
1.0079913 -0.88928533 0.0021188557 4278190335
0.46056813 -1.1216098 0.0046927929 4278190335
0.45560926 -1.1227876 0.0031448901 4278190335
0.45072758 -1.1248511 0.0031539798 4278190335
0.4466399 -1.126579 0.0031615496 4278190335
0.44255227 -1.128307 0.0031691492 4278190335
0.43437696 -1.1317629 0.0031843483 4278190335
0.31297266 -1.1817596 0.0033608675 4278190335
0.30102342 -1.1881338 0.0034320354 4278190335
0.29776901 -1.1895095 0.0034380853 4278190335
0.29284811 -1.1915897 0.0034472346 4278190335
