# .PCD v0.7 - Point Cloud Data file format
VERSION 0.7
FIELDS x y z rgb
SIZE 4 4 4 4
TYPE F F F U
COUNT 1 1 1 1
WIDTH 1054
HEIGHT 1
VIEWPOINT 0 0 0 1 0 0 0
POINTS 1054
DATA ascii
-0.8985554 0.22863041 0.10247254 4278190335
0.012031324 1.3290051 0.087131545 4278190335
-0.76873076 0.37761167 0.10234457 4278190335
-0.77281177 0.36479914 0.10292855 4278190335
-0.79497373 0.321511 0.10178569 4278190335
-0.83333147 0.27566928 0.10007358 4278190335
-0.84475052 0.26424125 0.10084006 4278190335
-0.048716966 1.2306778 0.085667431 4278190335
0.018670477 1.3043089 0.088093594 4278190335
-0.030464642 1.2434387 0.088672936 4278190335
0.016025722 1.2883496 0.087857693 4278190335
0.0102529 1.2757992 0.087745368 4278190335
-0.36300156 -0.64039582 0.085826874 4278190335
-0.36799809 -0.66430265 0.087108463 4278190335
-0.31006396 -0.60259914 0.088187486 4278190335
-0.29729006 -0.59654641 0.087077513 4278190335
-0.36369148 -0.68032026 0.088961184 4278190335
-0.3632147 -0.69783014 0.084564239 4278190335
-0.24721152 -0.58033299 0.084461182 4278190335
-0.34172219 -0.73633194 0.083742872 4278190335
-0.30409271 -0.77925628 0.086734667 4278190335
-0.15444984 -0.61484522 0.084177971 4278190335
-0.27448672 -0.8080759 0.083814278 4278190335
-0.26116991 -0.81410271 0.081950471 4278190335
0.18765676 -0.28369015 0.075135022 4278190335
0.18699065 -0.30917093 0.075549781 4278190335
-0.092044435 -0.64970326 0.080596283 4278190335
-0.2105204 -0.79464698 0.082637861 4278190335
-0.22352791 -0.80533159 0.085360438 4278190335
0.2047728 -0.29347599 0.074485883 4278190335
0.2922534 -0.2180966 0.074994385 4278190335
0.31951085 -0.19322026 0.075279504 4278190335
-0.078093417 -0.67798448 0.07915768 4278190335
0.2094149 -0.33521682 0.073165998 4278190335
0.34505132 -0.18354248 0.074199125 4278190335
-0.070397243 -0.7017923 0.080756888 4278190335
0.3579326 -0.18133557 0.074923098 4278190335
0.25818127 -0.30287492 0.074973121 4278190335
0.37537131 -0.17486972 0.069839194 4278190335
-0.072272062 -0.7216996 0.078857481 4278190335
0.38737658 -0.17743711 0.072075084 4278190335
0.11733058 -0.54008633 0.078390986 4278190335
0.41730174 -0.19654703 0.072618932 4278190335
0.1342372 -0.55039781 0.074406818 4278190335
-0.055506494 -0.81549066 0.081289113 4278190335
-0.062742077 -0.82547545 0.07929258 4278190335
-0.070704572 -0.83661634 0.080368698 4278190335
-0.082249083 -0.85052603 0.081067055 4278190335
0.43635949 -0.22055444 0.068252906 4278190335
-0.034401793 -0.80286819 0.078814134 4278190335
-0.099012263 -0.88101333 0.080171987 4278190335
0.43948922 -0.23296626 0.072562143 4278190335
0.16835958 -0.56226259 0.077083021 4278190335
0.18031996 -0.56588662 0.076512426 4278190335
0.13863498 -0.61586303 0.077623546 4278190335
0.20256916 -0.57095617 0.073870942 4278190335
-0.10372813 -0.94933903 0.079627976 4278190335
0.18278572 -0.61451179 0.076473206 4278190335
0.22881243 -0.57311505 0.074048176 4278190335
0.19693729 -0.61877519 0.074797869 4278190335
-0.088164091 -0.99496573 0.079182431 4278190335
0.26988566 -0.57531798 0.072300732 4278190335
0.29879209 -0.56695467 0.073727652 4278190335
-0.074065365 -1.0181189 0.081013486 4278190335
0.31018394 -0.56374538 0.070511937 4278190335
0.61947286 -0.20363787 0.065024719 4278190335
0.50440621 -0.35507011 0.06898354 4278190335
0.61923873 -0.22151186 0.063938022 4278190335
0.35362592 -0.54627109 0.071710616 4278190335
0.27785307 -0.6363079 0.06994532 4278190335
-0.049114544 -1.0443958 0.079645857 4278190335
0.6180855 -0.23789264 0.063882574 4278190335
0.51092112 -0.36616445 0.068475738 4278190335
0.61525643 -0.25193971 0.065583408 4278190335
0.61483872 -0.26808831 0.067033932 4278190335
0.52063882 -0.39695859 0.067229033 4278190335
0.41614601 -0.52380455 0.071636602 4278190335
0.30352747 -0.6626057 0.073762268 4278190335
0.45020863 -0.49283016 0.069750056 4278190335
0.44205317 -0.50159705 0.06854111 4278190335
0.43220291 -0.51229203 0.069031432 4278190335
0.4698492 -0.47711003 0.071032822 4278190335
0.41146913 -0.54662859 0.071513057 4278190335
0.39509365 -0.56607205 0.069639817 4278190335
0.59018981 -0.33114883 0.06416522 4278190335
0.52087963 -0.41865996 0.067981467 4278190335
0.51383519 -0.4331241 0.066454604 4278190335
0.50160456 -0.4494684 0.070205644 4278190335
0.48902979 -0.46339774 0.068461969 4278190335
0.72015703 -0.20964788 0.066358745 4278190335
0.71860957 -0.22145566 0.064980924 4278190335
0.34253651 -0.68629795 0.068670571 4278190335
0.60110784 -0.39462978 0.065731421 4278190335
0.35625204 -0.6921922 0.069967955 4278190335
0.3680985 -0.69646865 0.069726706 4278190335
0.5070821 -0.53762037 0.066752404 4278190335
0.520383 -0.53133339 0.066495419 4278190335
0.42499742 -0.65327084 0.07090795 4278190335
0.75390625 -0.26065016 0.062142372 4278190335
0.96083546 -0.017450482 0.058236182 4278190335
0.9449861 -0.032643881 0.059210345 4278190335
0.92702186 -0.06364134 0.061247304 4278190335
0.55998075 -0.50994575 0.064756632 4278190335
1.0090975 0.025418229 0.060261741 4278190335
0.99622655 0.013731406 0.060905546 4278190335
0.76772296 -0.27865958 0.063946992 4278190335
0.57928705 -0.50546241 0.066982731 4278190335
0.44460288 -0.6668551 0.067279652 4278190335
0.66260946 -0.4140889 0.066211939 4278190335
0.77424276 -0.29292306 0.064775825 4278190335
0.6680423 -0.43291673 0.062221646 4278190335
0.60276544 -0.51096469 0.067502677 4278190335
0.78049266 -0.30337322 0.061847121 4278190335
0.84234929 -0.23461846 0.063124612 4278190335
0.62084806 -0.51151693 0.065266699 4278190335
0.65625405 -0.49195641 0.065909505 4278190335
0.64595413 -0.49948058 0.063240305 4278190335
0.47653338 -0.7085467 0.06881085 4278190335
0.83836854 -0.29524139 0.060030296 4278190335
0.81617296 -0.33384603 0.059837386 4278190335
0.78542042 -0.38323233 0.060696736 4278190335
0.7611959 -0.41231358 0.060223162 4278190335
0.8008045 -0.39151528 0.060905084 4278190335
0.77046967 -0.4379122 0.059601456 4278190335
0.79041016 -0.4411146 0.063393891 4278190335
0.45042202 -0.87617004 0.065877244 4278190335
0.43845037 -0.93057817 0.064938307 4278190335
0.47622213 -0.89481193 0.06605266 4278190335
0.87247264 -0.42688945 0.058268562 4278190335
0.48447356 -0.90762281 0.064883262 4278190335
0.34004268 -1.0869579 0.070641115 4278190335
0.33025828 -1.0989821 0.071130902 4278190335
0.44287285 -0.96870404 0.067321807 4278190335
0.84140825 -0.49440545 0.057799295 4278190335
0.49041608 -0.91957206 0.064965993 4278190335
0.34190097 -1.1029581 0.069268331 4278190335
0.2815426 -1.1751333 0.070768371 4278190335
0.29516399 -1.1699952 0.067762807 4278190335
0.36936882 -1.0925298 0.066891909 4278190335
0.45433345 -0.99636441 0.068279222 4278190335
0.50507772 -0.94874847 0.065460965 4278190335
0.89707339 -0.47977674 0.058188856 4278190335
0.37410438 -1.1276914 0.067691609 4278190335
0.36109388 -1.1415734 0.069432795 4278190335
0.86255348 -0.55475652 0.058284715 4278190335
0.53862631 -0.99110097 0.063510209 4278190335
0.9523164 -0.52625251 0.058333844 4278190335
0.57676327 -1.0154084 0.064480096 4278190335
1.3635503 -0.23658274 0.050232589 4278190335
1.3702284 -0.27318293 0.048164099 4278190335
1.3725605 -0.30392599 0.049956024 4278190335
1.369926 -0.31653792 0.050450072 4278190335
0.99328768 -0.82169676 0.055934891 4278190335
0.97933519 -0.83979034 0.057663962 4278190335
-1.298174 0.59760576 0.11998332 4278190335
-0.62422204 1.3698459 0.10454074 4278190335
-0.6253469 1.3468649 0.10666376 4278190335
-0.61122358 1.3328098 0.10723588 4278190335
-0.57420695 1.3632946 0.10415712 4278190335
-0.60221934 1.3180377 0.10671344 4278190335
-0.60041595 1.305143 0.10733491 4278190335
-0.60558772 1.2697324 0.10413441 4278190335
-0.48219779 1.2279463 0.10291001 4278190335
-0.46144709 1.223821 0.1014314 4278190335
-0.42451695 1.2208416 0.10186633 4278190335
-1.1877223 0.28241897 0.11537415 4278190335
-0.41012496 1.2211057 0.099666268 4278190335
-0.36455327 1.2564912 0.10177508 4278190335
-0.38647935 1.2346606 0.10208878 4278190335
-1.1413441 0.31380937 0.114012 4278190335
-0.35053244 1.2672478 0.099758983 4278190335
-0.37370116 1.2426909 0.10143977 4278190335
-1.1869743 0.25252423 0.11522684 4278190335
-0.33025929 1.2785846 0.09853515 4278190335
-0.35285294 1.2541566 0.097933263 4278190335
-0.36241511 1.2388839 0.098318815 4278190335
-1.1342012 0.29780799 0.11445168 4278190335
-0.31268108 1.2885718 0.099434584 4278190335
-0.29790342 1.2983623 0.099904865 4278190335
-0.2723428 1.3073652 0.099516571 4278190335
-1.1493789 0.21304822 0.11321694 4278190335
-1.1360493 0.20508589 0.11122149 4278190335
-1.1231828 0.19906035 0.11332786 4278190335
-0.21781108 1.285138 0.09773916 4278190335
-0.99787378 0.33297765 0.1085625 4278190335
-0.20546594 1.2725947 0.096893847 4278190335
-1.0902377 0.18582296 0.11298218 4278190335
-0.95461559 0.34146908 0.1099728 4278190335
-0.98020971 0.31469381 0.11015475 4278190335
-0.95675099 0.31753671 0.10878044 4278190335
-0.1833604 1.2472754 0.093907267 4278190335
-1.0493251 0.18174644 0.11062583 4278190335
-0.16219242 1.2329903 0.093535468 4278190335
-0.15041417 1.2284205 0.093256757 4278190335
-0.9848485 0.20372279 0.10800859 4278190335
-0.13779278 1.2288855 0.096318722 4278190335
-0.92037284 0.22320601 0.1097886 4278190335
-0.094455503 1.2224479 0.093932986 4278190335
-0.069163427 1.2272848 0.094746262 4278190335
-0.88028085 0.23643959 0.10725644 4278190335
-0.77825904 0.35176283 0.104624 4278190335
-0.86785793 0.24327171 0.10640651 4278190335
-0.044768423 1.2382119 0.09503749 4278190335
-0.78900838 0.33109719 0.10793889 4278190335
-0.85619771 0.252606 0.10839608 4278190335
-0.80775309 0.30471492 0.10641846 4278190335
-0.81590724 0.29518202 0.10899082 4278190335
-0.000356704 1.2643453 0.089982465 4278190335
-0.3539069 -0.62869513 0.089922607 4278190335
-0.34311086 -0.62476999 0.09358868 4278190335
-0.32410756 -0.60790974 0.088869289 4278190335
-0.33379662 -0.61420226 0.091951638 4278190335
-0.36290994 -0.65243149 0.089831427 4278190335
-0.28034025 -0.59605384 0.09089765 4278190335
-0.35533947 -0.69328463 0.092783839 4278190335
-0.25349906 -0.58833033 0.091220886 4278190335
-0.34989646 -0.71397656 0.08918713 4278190335
-0.23351835 -0.58208388 0.086873069 4278190335
-0.34374475 -0.72518557 0.089484856 4278190335
-0.2180348 -0.58575439 0.089914411 4278190335
-0.33110744 -0.7447803 0.092505932 4278190335
-0.20671433 -0.59450632 0.090158612 4278190335
-0.3127529 -0.76648158 0.091582671 4278190335
-0.17669591 -0.61450392 0.086482897 4278190335
-0.13571471 -0.61374009 0.088348657 4278190335
-0.28377604 -0.80109274 0.089667916 4278190335
-0.11565771 -0.62690324 0.087160513 4278190335
-0.099310599 -0.63992286 0.084696725 4278190335
-0.1936588 -0.77703685 0.085211322 4278190335
0.22721329 -0.26958519 0.078437984 4278190335
0.21601522 -0.28496712 0.078853056 4278190335
0.23865709 -0.26526698 0.07815361 4278190335
0.23229867 -0.28031629 0.080364183 4278190335
0.24929169 -0.27264014 0.078318313 4278190335
-0.16654806 -0.77312303 0.085375056 4278190335
0.30708513 -0.20493118 0.076886877 4278190335
0.33087429 -0.18875228 0.077708855 4278190335
0.25269815 -0.28448826 0.080743775 4278190335
0.2252782 -0.32642356 0.079278514 4278190335
0.23722944 -0.31856692 0.080160931 4278190335
-0.14262614 -0.7904914 0.085795894 4278190335
0.36998069 -0.18086727 0.078715935 4278190335
0.274928 -0.29189137 0.08121717 4278190335
-0.10242059 -0.75894421 0.084245101 4278190335
-0.12632884 -0.78728205 0.084229037 4278190335
0.40729043 -0.19005226 0.074998498 4278190335
0.14817962 -0.55445218 0.079506844 4278190335
0.42937157 -0.21237436 0.078145728 4278190335
-0.04533593 -0.80840272 0.083225757 4278190335
-0.018522598 -0.79443103 0.084491521 4278190335
0.15107869 -0.61037999 0.078504145 4278190335
0.16651917 -0.61178654 0.080069453 4278190335
-0.100628 -0.96238506 0.083132297 4278190335
0.24086684 -0.57339603 0.077006698 4278190335
-0.094529681 -0.97787601 0.086447343 4278190335
0.2172358 -0.62174314 0.078935921 4278190335
0.23559445 -0.62019229 0.076119184 4278190335
0.28190115 -0.57023758 0.07911633 4278190335
0.62945914 -0.17108934 0.06945987 4278190335
0.62130892 -0.18838343 0.069140822 4278190335
0.26554099 -0.62663543 0.07689102 4278190335
-0.064576432 -1.030226 0.083188772 4278190335
0.34224364 -0.54885983 0.077005699 4278190335
0.6801585 -0.16384976 0.072098002 4278190335
0.37693575 -0.5392189 0.07643269 4278190335
0.28567621 -0.64833254 0.076200351 4278190335
0.51774812 -0.37973157 0.071986496 4278190335
-0.035418518 -1.0502336 0.081790611 4278190335
0.69346535 -0.17189026 0.072118312 4278190335
0.39862955 -0.54031008 0.073210359 4278190335
0.40717784 -0.53085721 0.075161353 4278190335
0.59963882 -0.31089526 0.068977341 4278190335
0.59179795 -0.32348844 0.073255688 4278190335
0.71101105 -0.19281815 0.06728892 4278190335
0.42429546 -0.54284436 0.072290748 4278190335
0.31969228 -0.67306542 0.074933752 4278190335
0.7233001 -0.19841602 0.071091816 4278190335
0.58798027 -0.36222267 0.071161434 4278190335
0.43884292 -0.54396266 0.071980804 4278190335
0.39315826 -0.59524548 0.074950233 4278190335
0.58908617 -0.37544957 0.069443166 4278190335
0.45171395 -0.54595864 0.072323069 4278190335
0.39622611 -0.62092257 0.072418451 4278190335
0.59336555 -0.38615507 0.072836757 4278190335
0.73029387 -0.2248932 0.069076434 4278190335
0.40312529 -0.6330291 0.07502614 4278190335
0.73704088 -0.23650914 0.066958666 4278190335
0.47751191 -0.54783064 0.07190752 4278190335
0.49670497 -0.54296029 0.071666896 4278190335
0.62401354 -0.4036704 0.06794475 4278190335
0.37994894 -0.70065445 0.072526842 4278190335
0.63643265 -0.40460354 0.068448916 4278190335
0.54309046 -0.5220682 0.069879219 4278190335
0.53359699 -0.52895433 0.073282987 4278190335
0.39289224 -0.70431226 0.073726192 4278190335
0.96915889 -0.012112833 0.06509985 4278190335
0.93839312 -0.050012249 0.067001641 4278190335
0.64983404 -0.40356889 0.067414224 4278190335
0.98771191 0.0023528927 0.064135343 4278190335
0.070810005 -1.1418676 0.081003472 4278190335
0.42899707 -0.71765912 0.072883844 4278190335
0.4657304 -0.6853599 0.070579052 4278190335
0.83876503 -0.24859205 0.065645874 4278190335
0.090360448 -1.1541324 0.077373803 4278190335
0.78907943 -0.31402838 0.068876132 4278190335
0.47555801 -0.69452453 0.0746167 4278190335
0.44718286 -0.72615415 0.072790906 4278190335
0.6758045 -0.45559373 0.069660917 4278190335
0.83804035 -0.26904407 0.067853898 4278190335
0.46402225 -0.72506309 0.072890565 4278190335
0.83742404 -0.28104249 0.067284897 4278190335
0.79932821 -0.32509032 0.068207979 4278190335
0.7717104 -0.38650656 0.064597979 4278190335
0.76751459 -0.39729393 0.067773417 4278190335
0.83329856 -0.33312142 0.06412527 4278190335
0.81894505 -0.40637237 0.06557633 4278190335
0.43374828 -0.88554907 0.071643159 4278190335
0.8313688 -0.41130349 0.063344106 4278190335
0.43471053 -0.90705925 0.071537554 4278190335
0.84942377 -0.41420636 0.067393184 4278190335
0.43542793 -0.9200924 0.0741328 4278190335
0.83354986 -0.44276363 0.063510746 4278190335
0.46927944 -0.88518542 0.072266832 4278190335
0.43724886 -0.94224423 0.070997521 4278190335
0.86277318 -0.4260408 0.066669479 4278190335
0.26459619 -1.1800022 0.075941026 4278190335
0.8605752 -0.48026752 0.062587902 4278190335
0.84054005 -0.50410062 0.065736488 4278190335
0.44783142 -0.98146445 0.073511034 4278190335
0.49536833 -0.9298715 0.06902732 4278190335
0.84287846 -0.51852375 0.064235285 4278190335
0.36407068 -1.102537 0.072198957 4278190335
0.35422528 -1.1087389 0.075388536 4278190335
0.30340379 -1.1699963 0.076670527 4278190335
0.87876534 -0.47612497 0.066532806 4278190335
0.31955355 -1.1636841 0.076491639 4278190335
0.33011091 -1.1595604 0.071431294 4278190335
0.45416877 -1.0102246 0.071509615 4278190335
0.44147959 -1.0285993 0.069388568 4278190335
0.85185277 -0.5339039 0.064591825 4278190335
0.37984183 -1.1142534 0.071405455 4278190335
0.34819302 -1.1509804 0.071942911 4278190335
0.51474059 -0.95907253 0.070623368 4278190335
0.92039263 -0.49880803 0.06246382 4278190335
0.87192643 -0.56534207 0.063520566 4278190335
0.93180728 -0.51195484 0.060666665 4278190335
0.8841722 -0.57487971 0.065881908 4278190335
0.94076824 -0.5198822 0.060223758 4278190335
0.89444566 -0.58462936 0.064293101 4278190335
0.56076038 -1.0048537 0.070853531 4278190335
0.96683681 -0.53381813 0.062287137 4278190335
0.62041688 -1.0000457 0.069968596 4278190335
1.3477329 -0.20693137 0.053184703 4278190335
1.3675997 -0.25265414 0.052470103 4278190335
0.99742711 -0.79722476 0.061366811 4278190335
0.95016456 -0.86044997 0.061735138 4278190335
0.9976691 -0.80973214 0.060366005 4278190335
-1.310504 0.56877822 0.12300399 4278190335
-0.63346028 1.3674691 0.11261889 4278190335
-0.60516357 1.3660597 0.1124028 4278190335
-0.59359843 1.361244 0.1108945 4278190335
-0.60283673 1.2802306 0.11079162 4278190335
-0.58651602 1.248264 0.10953006 4278190335
-0.57527828 1.24204 0.10839733 4278190335
-0.56212592 1.2361077 0.11154422 4278190335
-0.54247069 1.2280796 0.11138377 4278190335
-0.52896929 1.2259094 0.1097284 4278190335
-0.50562835 1.2271382 0.10687491 4278190335
-1.1819441 0.3339788 0.1208443 4278190335
-0.44472978 1.2247243 0.1060366 4278190335
-1.1557564 0.32073584 0.12179968 4278190335
-0.36947784 1.2664683 0.10672602 4278190335
-0.38292414 1.2491782 0.10655805 4278190335
-0.39960322 1.2301768 0.10376421 4278190335
-1.1928149 0.26435995 0.12201864 4278190335
-0.35779858 1.2751273 0.10557714 4278190335
-1.1649756 0.28892609 0.11912486 4278190335
-0.3459883 1.2790086 0.10402775 4278190335
-1.1235756 0.3000595 0.12018067 4278190335
-1.1361115 0.283544 0.11734566 4278190335
-1.1734197 0.23318243 0.12104967 4278190335
-0.28750169 1.3074743 0.1017181 4278190335
-1.1187346 0.28664455 0.11805367 4278190335
-1.1634272 0.22403516 0.12034473 4278190335
-0.25861943 1.3087184 0.10266101 4278190335
-0.24129255 1.3014557 0.10242864 4278190335
-0.22718631 1.2946117 0.10251108 4278190335
-1.0070237 0.33254907 0.11756369 4278190335
-0.99689651 0.31952363 0.11502755 4278190335
-1.1033168 0.19077301 0.11597249 4278190335
-1.0787793 0.18335454 0.11798206 4278190335
-0.95444608 0.32808548 0.11527398 4278190335
-0.96536124 0.31150338 0.11633119 4278190335
-0.17298248 1.2423029 0.10151246 4278190335
-1.037559 0.18481664 0.1154027 4278190335
-1.0179271 0.19229552 0.11635327 4278190335
-0.9722265 0.20599568 0.11304092 4278190335
-0.12297828 1.2324362 0.1013729 4278190335
-0.0091001913 1.3625492 0.099064708 4278190335
-0.95418763 0.21075192 0.11614817 4278190335
-0.10712263 1.2294742 0.10072684 4278190335
-0.93250465 0.21856751 0.11619446 4278190335
-0.084540606 1.2288991 0.099355996 4278190335
-0.90734506 0.2278927 0.11090896 4278190335
-0.8905555 0.23227139 0.11286089 4278190335
-0.05795991 1.2325705 0.097977102 4278190335
0.015297323 1.3103403 0.098032176 4278190335
-0.83696294 0.27093738 0.11247063 4278190335
-0.84505105 0.26223966 0.11403236 4278190335
-0.025188781 1.2521447 0.097189575 4278190335
-0.82620883 0.28252003 0.1098347 4278190335
-0.010968357 1.2580848 0.095168248 4278190335
-0.3477385 -0.63963473 0.097785741 4278190335
-0.31352106 -0.61217946 0.096518099 4278190335
-0.35752642 -0.66319716 0.095106095 4278190335
-0.29234874 -0.60597807 0.094203934 4278190335
-0.34399325 -0.70674878 0.097543657 4278190335
-0.24068612 -0.58918887 0.096125185 4278190335
-0.33557254 -0.73387033 0.095749378 4278190335
-0.32261565 -0.75335062 0.09482789 4278190335
-0.19198194 -0.6077019 0.092066765 4278190335
-0.29384422 -0.78697062 0.094944552 4278190335
-0.2449705 -0.811077 0.092435911 4278190335
0.20203927 -0.28334033 0.083503097 4278190335
0.21760413 -0.27311704 0.084723696 4278190335
-0.201804 -0.78725892 0.092535913 4278190335
0.20653054 -0.2985068 0.085374013 4278190335
-0.086754903 -0.65838563 0.088170454 4278190335
-0.17811188 -0.77632153 0.093993142 4278190335
0.25425625 -0.2569207 0.086915627 4278190335
0.28335255 -0.22622828 0.083709508 4278190335
0.21388844 -0.33256125 0.084189042 4278190335
-0.077974007 -0.68128079 0.091269776 4278190335
0.26055455 -0.27601492 0.08669959 4278190335
-0.15404725 -0.78566867 0.089397833 4278190335
-0.072935015 -0.69492561 0.090276763 4278190335
0.29390889 -0.25426143 0.083994523 4278190335
0.2462756 -0.31177527 0.084480911 4278190335
-0.072043478 -0.71044415 0.091331765 4278190335
-0.11281234 -0.77033365 0.090528712 4278190335
-0.090492859 -0.74629974 0.088841379 4278190335
0.12817171 -0.54347014 0.086696863 4278190335
0.13974223 -0.54921138 0.087899446 4278190335
-0.088505499 -0.86397541 0.09000428 4278190335
0.12981018 -0.6235531 0.086076438 4278190335
0.11913109 -0.63348633 0.085829228 4278190335
0.19765753 -0.56618369 0.083920285 4278190335
0.21612972 -0.5681265 0.084694073 4278190335
0.26355681 -0.57208604 0.082113311 4278190335
-0.077955551 -1.0102155 0.090368718 4278190335
0.25197604 -0.62304664 0.082073316 4278190335
0.31164867 -0.55924702 0.082244188 4278190335
0.64008057 -0.16733006 0.076209024 4278190335
0.32320476 -0.55558807 0.082129583 4278190335
0.65209067 -0.16571568 0.077695385 4278190335
0.62367272 -0.2056403 0.077382892 4278190335
0.27353382 -0.63540465 0.081258357 4278190335
-0.05810276 -1.0371003 0.090607807 4278190335
0.66492105 -0.16412668 0.075409487 4278190335
0.50626099 -0.3621524 0.079680607 4278190335
0.36317304 -0.54227769 0.078811839 4278190335
0.62418187 -0.22910343 0.075721696 4278190335
0.62383819 -0.24263467 0.07446368 4278190335
0.3922537 -0.53132808 0.081799626 4278190335
0.62202692 -0.2681092 0.077978805 4278190335
0.61678517 -0.28138286 0.07744348 4278190335
0.42598972 -0.51382726 0.080274999 4278190335
0.52127135 -0.40527433 0.077699974 4278190335
0.45074055 -0.48930982 0.081440568 4278190335
0.43660638 -0.50310582 0.080576286 4278190335
0.47575703 -0.47065321 0.080700576 4278190335
0.46086696 -0.48186004 0.079142779 4278190335
0.58788574 -0.34168836 0.074581102 4278190335
0.52084208 -0.41846898 0.080111384 4278190335
0.51182318 -0.43364641 0.078529939 4278190335
0.40695801 -0.55713749 0.077371836 4278190335
0.39683166 -0.58312309 0.077991173 4278190335
0.33101425 -0.67903757 0.079894036 4278190335
0.39738771 -0.61071205 0.078871176 4278190335
0.73295152 -0.20650858 0.071973324 4278190335
0.74052835 -0.21633026 0.074787661 4278190335
0.35171252 -0.69225526 0.082501858 4278190335
0.74222338 -0.22858933 0.074661285 4278190335
0.41212758 -0.64200282 0.080008835 4278190335
0.74268329 -0.24749686 0.072600424 4278190335
0.61170793 -0.39995348 0.074243084 4278190335
0.51061094 -0.53926104 0.079121888 4278190335
0.75292313 -0.25396013 0.074890971 4278190335
0.52177835 -0.53502274 0.078196689 4278190335
0.95663238 -0.023178143 0.069995597 4278190335
0.76132512 -0.26311004 0.072032541 4278190335
0.97933781 -0.0058857314 0.068529263 4278190335
0.64466166 -0.40979266 0.076197237 4278190335
1.0027019 0.020756606 0.069391131 4278190335
0.5753442 -0.51076812 0.076957479 4278190335
0.41382161 -0.71129054 0.07778421 4278190335
0.062199295 -1.1335485 0.083492562 4278190335
0.4507567 -0.67017096 0.077503443 4278190335
0.66444099 -0.42943659 0.074295864 4278190335
0.46003756 -0.67807245 0.078485519 4278190335
0.081649408 -1.1461421 0.085017279 4278190335
0.6706214 -0.44213638 0.071700901 4278190335
0.67436111 -0.46749482 0.072777957 4278190335
0.64157736 -0.50545514 0.073377594 4278190335
0.48249713 -0.70503932 0.0790167 4278190335
0.66872692 -0.4802233 0.076278925 4278190335
0.48291734 -0.71758652 0.078112334 4278190335
0.81189942 -0.33190423 0.071143672 4278190335
0.83737624 -0.30788833 0.070560589 4278190335
0.83486378 -0.3207525 0.071891904 4278190335
0.76335096 -0.41329232 0.074069381 4278190335
0.76272869 -0.43429199 0.070918441 4278190335
0.80270684 -0.44230822 0.070418134 4278190335
0.44922712 -0.87039518 0.076758519 4278190335
0.46080551 -0.87369204 0.078922018 4278190335
0.84690392 -0.43824041 0.070105866 4278190335
0.438795 -0.96269143 0.079069898 4278190335
0.32628804 -1.109351 0.077484995 4278190335
0.85074115 -0.4834865 0.068995059 4278190335
0.33183229 -1.1206275 0.079470992 4278190335
0.34306926 -1.1148729 0.077755198 4278190335
0.50666261 -0.94652182 0.077913105 4278190335
0.36958286 -1.1143222 0.079760194 4278190335
0.35745957 -1.1457716 0.080527753 4278190335
0.90819252 -0.48698771 0.066094279 4278190335
0.8597554 -0.54584807 0.069306329 4278190335
0.52273548 -0.96808988 0.074942008 4278190335
0.53526533 -0.98436964 0.074403316 4278190335
0.90428221 -0.58905047 0.070450187 4278190335
0.91163528 -0.59868848 0.067622989 4278190335
0.58662546 -1.0157452 0.073895544 4278190335
0.62743044 -0.98943388 0.07240212 4278190335
1.3372345 -0.19261406 0.057493433 4278190335
1.3509687 -0.21613747 0.061349332 4278190335
1.3599153 -0.24637914 0.060846075 4278190335
1.3705655 -0.28888509 0.059248134 4278190335
0.98867059 -0.82450634 0.066795841 4278190335
0.96846652 -0.84832048 0.065299481 4278190335
-1.3040096 0.55210233 0.12700686 4278190335
-0.63141966 1.3560468 0.11829084 4278190335
-0.62033808 1.3633094 0.11754262 4278190335
-1.2929139 0.53343916 0.12611696 4278190335
-0.61790979 1.3409061 0.11634973 4278190335
-0.55263352 1.3840749 0.11588615 4278190335
-0.56242228 1.3731599 0.11343771 4278190335
-0.5715301 1.3652437 0.11575615 4278190335
-0.60467494 1.3213725 0.11836353 4278190335
-0.59977055 1.2941866 0.1160349 4278190335
-0.59450555 1.2563919 0.11534896 4278190335
-0.49478647 1.2290585 0.1121704 4278190335
-1.2059497 0.34967351 0.12636197 4278190335
-1.2202773 0.31562915 0.12527895 4278190335
-0.46864605 1.2303863 0.11471283 4278190335
-1.1933879 0.34087414 0.12437624 4278190335
-0.4541086 1.230208 0.11339587 4278190335
-0.42733008 1.2291322 0.11104867 4278190335
-1.1709443 0.32689306 0.12397158 4278190335
-0.3868542 1.2602931 0.11032641 4278190335
-0.39562431 1.252064 0.11226597 4278190335
-0.41410542 1.2319751 0.11161983 4278190335
-0.36704022 1.2795405 0.1127193 4278190335
-1.1780237 0.29076502 0.12426484 4278190335
-0.30901641 1.3225038 0.11027637 4278190335
-1.1358643 0.30916223 0.12445647 4278190335
-0.32703131 1.2921721 0.10756573 4278190335
-1.1491014 0.28346285 0.12235111 4278190335
-1.1852854 0.24562155 0.12574324 4278190335
-0.30397588 1.3099422 0.10969818 4278190335
-0.31335512 1.2989787 0.10809472 4278190335
-0.28515834 1.3241597 0.10982218 4278190335
-0.27532417 1.3174365 0.10757133 4278190335
-0.99039149 0.34418684 0.11906716 4278190335
-1.1106433 0.19384471 0.1249449 4278190335
-0.20962289 1.2783237 0.10658607 4278190335
-0.9634372 0.34465119 0.11784223 4278190335
-0.20016098 1.2691977 0.10707006 4278190335
-0.9896431 0.31061593 0.12176105 4278190335
-0.19142592 1.2609328 0.10563585 4278190335
-0.14859053 1.2369759 0.10486782 4278190335
-1.003198 0.19701466 0.11904684 4278190335
-0.13375181 1.2366784 0.10553008 4278190335
-0.0028647333 1.3457885 0.10441214 4278190335
0.0035716444 1.3361948 0.10048291 4278190335
-0.068547577 1.2359936 0.10420415 4278190335
-0.037232261 1.2481688 0.10190603 4278190335
0.011274211 1.2970256 0.10154569 4278190335
-0.79618263 0.31741399 0.11372203 4278190335
0.0061806515 1.2772607 0.10002038 4278190335
-0.0032241121 1.2693645 0.1024394 4278190335
-0.33000237 -0.62234646 0.1019358 4278190335
-0.3453224 -0.65802997 0.10184953 4278190335
-0.30157781 -0.61226422 0.098606229 4278190335
-0.34519145 -0.67682725 0.10269395 4278190335
-0.28439146 -0.61105353 0.10173482 4278190335
-0.26479584 -0.59887081 0.09753412 4278190335
-0.34520572 -0.69383842 0.099383235 4278190335
-0.33544481 -0.71807909 0.10116932 4278190335
-0.32491305 -0.73861879 0.10270667 4278190335
-0.20576581 -0.60324812 0.10074893 4278190335
-0.31420958 -0.75721234 0.10237324 4278190335
-0.30589461 -0.76868016 0.10216475 4278190335
-0.17363048 -0.62011558 0.097674996 4278190335
0.032352135 -0.37578407 0.095462039 4278190335
0.020419553 -0.38776678 0.096410513 4278190335
0.043216422 -0.37022433 0.093920872 4278190335
-0.27735567 -0.79964322 0.099871099 4278190335
-0.26580936 -0.80628771 0.10128257 4278190335
-0.10831292 -0.63341093 0.094208792 4278190335
-0.25598329 -0.81190038 0.097334176 4278190335
0.19611245 -0.27736548 0.092950746 4278190335
-0.23053467 -0.8063972 0.096162677 4278190335
-0.21557732 -0.79817545 0.099305958 4278190335
0.24140736 -0.25578138 0.088705495 4278190335
0.22067592 -0.28519195 0.090501398 4278190335
0.19863072 -0.30724356 0.09256196 4278190335
0.29341957 -0.21874896 0.087786332 4278190335
0.24200627 -0.28225455 0.089385957 4278190335
0.31254679 -0.20224972 0.088251278 4278190335
0.20010707 -0.33786723 0.089339614 4278190335
-0.16546293 -0.78122461 0.098483801 4278190335
0.28137246 -0.2522701 0.089532986 4278190335
0.2228924 -0.3263534 0.091344774 4278190335
0.3395482 -0.18822728 0.08809118 4278190335
0.262519 -0.29846126 0.087246314 4278190335
-0.07492432 -0.72260672 0.094096586 4278190335
-0.12161629 -0.78116637 0.094977662 4278190335
-0.08171802 -0.73510516 0.096228898 4278190335
0.41689411 -0.20265332 0.084708259 4278190335
0.1520955 -0.55288041 0.091597453 4278190335
-0.073844552 -0.83899206 0.092244238 4278190335
0.16354284 -0.5570243 0.088792175 4278190335
-0.080541313 -0.85171199 0.093347833 4278190335
-0.032807071 -0.80086511 0.092250183 4278190335
-0.011539005 -0.78913325 0.093213275 4278190335
0.18199965 -0.56148612 0.088842094 4278190335
0.14507566 -0.61387825 0.088977411 4278190335
0.15755117 -0.61091661 0.090467572 4278190335
0.17978138 -0.61265123 0.089916393 4278190335
-0.096565619 -0.96585232 0.094516024 4278190335
0.19442207 -0.61691195 0.087436631 4278190335
0.24288777 -0.56951863 0.089856237 4278190335
-0.08671698 -0.9929297 0.093377545 4278190335
0.27555817 -0.56727386 0.089683592 4278190335
0.22970682 -0.62403029 0.090381309 4278190335
0.28906152 -0.56492585 0.08732444 4278190335
0.30043209 -0.5613538 0.086704493 4278190335
-0.068880081 -1.0221865 0.095590889 4278190335
0.26013112 -0.63075322 0.087486163 4278190335
0.62509251 -0.19197528 0.082485795 4278190335
0.49770376 -0.35342738 0.082255423 4278190335
0.62544775 -0.21754432 0.081109375 4278190335
-0.047959503 -1.0468624 0.091320634 4278190335
0.28349733 -0.65034169 0.088505179 4278190335
0.40123168 -0.52522933 0.087173149 4278190335
0.62730277 -0.25472501 0.079846427 4278190335
0.51891732 -0.38803691 0.081411734 4278190335
0.41564098 -0.52044636 0.085001409 4278190335
0.29638949 -0.65995783 0.086559892 4278190335
0.70393109 -0.17885217 0.077521011 4278190335
0.60829604 -0.29834968 0.079650253 4278190335
0.31126606 -0.66854239 0.085809663 4278190335
0.50350034 -0.44443086 0.081142426 4278190335
0.49489108 -0.45417845 0.085628971 4278190335
0.48539111 -0.46333238 0.081227049 4278190335
0.40292954 -0.57385033 0.08300668 4278190335
0.58954489 -0.35029051 0.082766593 4278190335
0.42813322 -0.55054969 0.082208812 4278190335
0.40198463 -0.59842479 0.085779399 4278190335
0.59120345 -0.3732039 0.08198604 4278190335
0.33952421 -0.68461096 0.086822137 4278190335
0.45590183 -0.55030769 0.08433789 4278190335
0.40843973 -0.62613356 0.085002825 4278190335
0.60410154 -0.39439774 0.082483605 4278190335
0.36427081 -0.69785839 0.086606875 4278190335
0.37564096 -0.70232618 0.084075525 4278190335
0.62620425 -0.40866297 0.080598086 4278190335
0.054739848 -1.1164695 0.091866404 4278190335
0.94698191 -0.03810234 0.073005557 4278190335
0.43578127 -0.65730661 0.081384256 4278190335
0.99234617 0.011085262 0.073811471 4278190335
0.92828035 -0.066939063 0.074128166 4278190335
0.55818856 -0.51997197 0.079473734 4278190335
0.54677236 -0.53026736 0.082508862 4278190335
0.76954973 -0.27510473 0.076931879 4278190335
0.65685165 -0.41933811 0.078589052 4278190335
0.58905578 -0.5122301 0.079892382 4278190335
0.42600319 -0.71651155 0.085466281 4278190335
0.78191125 -0.30253544 0.07806918 4278190335
0.8414247 -0.23633923 0.078193009 4278190335
0.60914099 -0.51793802 0.082324281 4278190335
0.47159341 -0.6874097 0.08440797 4278190335
0.83775342 -0.24819113 0.078448474 4278190335
0.62903261 -0.5147357 0.078962624 4278190335
1.0920264 0.041511256 0.071512207 4278190335
0.65094745 -0.49868974 0.077098027 4278190335
0.45891997 -0.73012018 0.084801421 4278190335
0.66077626 -0.49068654 0.080425143 4278190335
0.47237274 -0.7293371 0.082513735 4278190335
0.82338345 -0.33172876 0.076064736 4278190335
0.78188324 -0.38648161 0.078486905 4278190335
0.80113626 -0.39056328 0.07447654 4278190335
0.8118006 -0.39952475 0.07550332 4278190335
0.77690744 -0.43943378 0.076516658 4278190335
0.43443987 -0.86302561 0.083917886 4278190335
0.43090519 -0.87651205 0.080983385 4278190335
0.42958996 -0.88974142 0.082633063 4278190335
0.82972825 -0.41392255 0.07690452 4278190335
0.84273422 -0.4172315 0.07723096 4278190335
0.81654918 -0.44241923 0.07566312 4278190335
0.82965648 -0.44091502 0.077039212 4278190335
0.85302567 -0.4280822 0.073860854 4278190335
0.32360154 -1.096876 0.084044561 4278190335
0.34999901 -1.0701871 0.083034858 4278190335
0.34060821 -1.0795028 0.081698284 4278190335
0.31940827 -1.1182539 0.085342526 4278190335
0.27031863 -1.1832057 0.087555408 4278190335
0.49299702 -0.920268 0.08036676 4278190335
0.28431937 -1.1783241 0.086001679 4278190335
0.29744822 -1.1749505 0.086409166 4278190335
0.50010383 -0.93437433 0.081814468 4278190335
0.84807897 -0.52091193 0.076874331 4278190335
0.37254936 -1.1007868 0.080836743 4278190335
0.45394424 -1.015491 0.082468003 4278190335
0.34202683 -1.1567372 0.08174561 4278190335
0.36791351 -1.1340647 0.082660943 4278190335
0.51708913 -0.95780849 0.082924917 4278190335
0.91537178 -0.4943487 0.075783193 4278190335
0.86992455 -0.55812186 0.073354274 4278190335
0.92476189 -0.50473607 0.072619289 4278190335
0.93361342 -0.5134052 0.073367551 4278190335
0.89585292 -0.58005792 0.075828061 4278190335
0.55115008 -0.99684471 0.077252358 4278190335
0.95466435 -0.52864009 0.070637316 4278190335
0.98238838 -0.54108751 0.073923767 4278190335
0.60362041 -1.0122077 0.075726032 4278190335
1.343358 -0.20359871 0.064380363 4278190335
1.3572055 -0.23477204 0.062766507 4278190335
1.364414 -0.26621646 0.061908245 4278190335
1.3677096 -0.27880275 0.065141276 4278190335
1.3732194 -0.3039645 0.063088834 4278190335
1.3717318 -0.31704903 0.064582869 4278190335
0.99347782 -0.80728704 0.072167799 4278190335
0.97815597 -0.83846784 0.071368426 4278190335
-1.3091967 0.57588965 0.13298285 4278190335
-0.5847339 1.3635259 0.12023342 4278190335
-0.60105622 1.267033 0.11839047 4278190335
-0.58025515 1.2492161 0.11978236 4278190335
-0.55128497 1.2337315 0.11888075 4278190335
-0.5155589 1.2289191 0.11900184 4278190335
-0.43816823 1.2333918 0.11663589 4278190335
-0.39365512 1.2678584 0.11739442 4278190335
-0.42328247 1.2387509 0.11876756 4278190335
-0.41096044 1.2449615 0.1175729 4278190335
-0.37865365 1.2761408 0.11585411 4278190335
-1.189585 0.2768048 0.12889308 4278190335
-0.31544501 1.3348194 0.11657628 4278190335
-0.33339849 1.314249 0.11694488 4278190335
-0.35538834 1.287172 0.11297733 4278190335
-0.34461099 1.2940619 0.11428168 4278190335
-1.1465541 0.31390443 0.12760472 4278190335
-0.30367732 1.333782 0.11421192 4278190335
-0.31974185 1.3111271 0.11310992 4278190335
-0.32980806 1.3019636 0.1140236 4278190335
-1.1609888 0.28708702 0.13115174 4278190335
-0.29000649 1.3341618 0.11612371 4278190335
-1.1295519 0.28312564 0.12933663 4278190335
-1.1574347 0.21796696 0.1291042 4278190335
-0.24978314 1.3067101 0.1116432 4278190335
-1.1467367 0.21156858 0.1266039 4278190335
-0.23531666 1.296737 0.11293408 4278190335
-1.1263269 0.2015719 0.12654477 4278190335
-0.22037689 1.2863126 0.1127837 4278190335
-1.0045384 0.3225188 0.1249961 4278190335
-0.97366583 0.34779435 0.12417278 4278190335
-1.0924383 0.18612957 0.12963003 4278190335
-0.95462823 0.33754081 0.12429461 4278190335
-0.97538388 0.30445281 0.12519011 4278190335
-1.069828 0.18362513 0.1267899 4278190335
-0.95628464 0.31984153 0.12522954 4278190335
-1.0576886 0.1840456 0.12499687 4278190335
-1.0424589 0.18602546 0.12726331 4278190335
-0.16018847 1.2424947 0.10912433 4278190335
-0.98358452 0.20190388 0.12564901 4278190335
-0.12373115 1.2408086 0.11089987 4278190335
-0.96970403 0.20638335 0.1265325 4278190335
-0.11215717 1.2378426 0.1077331 4278190335
-0.094617777 1.2358429 0.10785758 4278190335
-0.92109346 0.22270748 0.12184912 4278190335
0.0069564804 1.3250951 0.10550451 4278190335
-0.33442652 -0.63381785 0.10545722 4278190335
-0.34004164 -0.64748961 0.10411307 4278190335
-0.33555382 -0.66244096 0.10877985 4278190335
-0.29551685 -0.61913025 0.10644549 4278190335
-0.27201197 -0.60767984 0.10317874 4278190335
-0.33477733 -0.68849719 0.10768276 4278190335
-0.2554239 -0.60370022 0.1054711 4278190335
-0.2434568 -0.59851533 0.10451213 4278190335
-0.33361167 -0.70613426 0.10510477 4278190335
-0.22787669 -0.59504247 0.10318357 4278190335
-0.21664412 -0.60192019 0.10570204 4278190335
-0.19576374 -0.61483175 0.10183212 4278190335
0.054096013 -0.36403358 0.099151105 4278190335
-0.15276632 -0.6211226 0.10206208 4278190335
-0.2854566 -0.78818393 0.10463044 4278190335
-0.13818423 -0.61822289 0.10041597 4278190335
-0.12384599 -0.62404567 0.099262655 4278190335
0.17366523 -0.28242683 0.095499873 4278190335
0.21011415 -0.27304068 0.095475003 4278190335
-0.097836509 -0.64317352 0.099556178 4278190335
0.2307553 -0.26078936 0.096483529 4278190335
-0.09003786 -0.65418255 0.10031918 4278190335
-0.19354099 -0.78112757 0.1009452 4278190335
0.24660388 -0.24733821 0.096826524 4278190335
0.26820502 -0.23504461 0.094962373 4278190335
0.21793291 -0.29543176 0.096528888 4278190335
0.23164633 -0.27997467 0.094949439 4278190335
-0.084023654 -0.66984981 0.10211015 4278190335
0.28297946 -0.22626495 0.096485406 4278190335
0.23506081 -0.31801575 0.095600531 4278190335
-0.07632672 -0.70155859 0.10106459 4278190335
-0.1548645 -0.79134166 0.10015345 4278190335
-0.13616326 -0.79773676 0.099408925 4278190335
-0.097751282 -0.75488186 0.09844774 4278190335
-0.10610772 -0.76323223 0.10085079 4278190335
0.13372119 -0.54421031 0.09732452 4278190335
-0.056551322 -0.8155632 0.097137541 4278190335
-0.065283209 -0.8261717 0.099315971 4278190335
-0.042040344 -0.80399126 0.099798083 4278190335
-0.089383669 -0.8737874 0.099053711 4278190335
0.13549177 -0.62091607 0.096515596 4278190335
0.20268181 -0.56405389 0.094897315 4278190335
-0.098146863 -0.9385227 0.098512709 4278190335
-0.09947636 -0.95199138 0.097213209 4278190335
0.22722983 -0.56736875 0.092214838 4278190335
0.24152473 -0.62551606 0.091212064 4278190335
0.31712887 -0.55348068 0.092399076 4278190335
0.63278437 -0.18018115 0.08473587 4278190335
0.35623944 -0.54300702 0.091929898 4278190335
0.27219304 -0.64189887 0.092080146 4278190335
0.36824143 -0.53903407 0.089635417 4278190335
0.68307781 -0.16974162 0.086576268 4278190335
0.51284242 -0.3735806 0.088375479 4278190335
0.37984312 -0.53317684 0.091659009 4278190335
0.63499582 -0.24485654 0.087041169 4278190335
0.69663262 -0.17579086 0.086789668 4278190335
0.43936577 -0.49667808 0.090748921 4278190335
0.63205492 -0.27279055 0.08766368 4278190335
0.60065448 -0.31663376 0.084068552 4278190335
0.52178264 -0.41009378 0.089725435 4278190335
0.46765456 -0.47463584 0.088528231 4278190335
0.59596729 -0.32941484 0.086412117 4278190335
0.5089761 -0.43735844 0.089508533 4278190335
0.71717012 -0.18833713 0.082137391 4278190335
0.32069764 -0.67376953 0.091212422 4278190335
0.42111406 -0.55941951 0.088121504 4278190335
0.40498069 -0.58518761 0.089001596 4278190335
0.7286216 -0.19669323 0.086035877 4278190335
0.59136403 -0.36168602 0.085997239 4278190335
0.44474462 -0.55311692 0.088511169 4278190335
0.59660637 -0.38429111 0.084388614 4278190335
0.40940675 -0.61088532 0.090894952 4278190335
0.47301707 -0.55107385 0.089146778 4278190335
0.048714414 -1.0647335 0.094887674 4278190335
0.48565689 -0.54793924 0.08589752 4278190335
0.049350917 -1.0801468 0.095408991 4278190335
0.75368166 -0.22728042 0.083066016 4278190335
0.61543524 -0.40263021 0.087019354 4278190335
0.41940966 -0.63664293 0.088124171 4278190335
0.75248146 -0.24369203 0.080969512 4278190335
0.42894676 -0.64579707 0.087003186 4278190335
0.76266241 -0.24854159 0.08522661 4278190335
0.97029591 -0.0087312665 0.077028006 4278190335
0.63408852 -0.41504022 0.087507322 4278190335
0.53434432 -0.53694612 0.08456026 4278190335
0.39681762 -0.70879692 0.088246703 4278190335
0.98170018 0.0014304408 0.079864517 4278190335
0.94052255 -0.053701658 0.078884915 4278190335
0.063386798 -1.1253169 0.094275132 4278190335
0.56942904 -0.51971507 0.086477295 4278190335
0.40981403 -0.71342838 0.090081394 4278190335
0.072255149 -1.1365523 0.094917059 4278190335
0.65915346 -0.42895243 0.085288912 4278190335
1.0109998 -0.02252546 0.075915158 4278190335
0.66750634 -0.44370636 0.083437562 4278190335
0.096001148 -1.1529306 0.092849985 4278190335
1.0231313 -0.031031005 0.079126328 4278190335
0.78985763 -0.31270379 0.08167477 4278190335
0.44627813 -0.72895592 0.087678328 4278190335
1.0782783 0.02641003 0.076304212 4278190335
0.10699289 -1.1611459 0.094598338 4278190335
0.80214643 -0.32307807 0.080352336 4278190335
0.6792593 -0.46802625 0.084416971 4278190335
0.83637798 -0.29496092 0.081386268 4278190335
0.48472068 -0.72750181 0.085022613 4278190335
0.8140316 -0.32754442 0.083709523 4278190335
0.76791239 -0.40351227 0.081017807 4278190335
0.79539716 -0.44204026 0.079918876 4278190335
0.43179616 -0.9157415 0.085916609 4278190335
0.4330993 -0.92863458 0.085605666 4278190335
0.8410064 -0.43834892 0.08072412 4278190335
0.47327456 -0.88651764 0.08465834 4278190335
0.43429866 -0.94833666 0.08631222 4278190335
0.32998472 -1.0851425 0.089623153 4278190335
0.48577842 -0.90477115 0.086063072 4278190335
0.84248209 -0.48867372 0.078273177 4278190335
0.85966969 -0.47707742 0.078595147 4278190335
0.84098852 -0.50635928 0.078420654 4278190335
0.4485822 -0.98335236 0.085499361 4278190335
0.33710858 -1.1261209 0.090638146 4278190335
0.88270199 -0.47734565 0.079250321 4278190335
0.4550797 -0.99442482 0.086433291 4278190335
0.35816973 -1.1140512 0.086687103 4278190335
0.31320488 -1.1700577 0.087670788 4278190335
0.33348724 -1.163204 0.089282557 4278190335
0.90004277 -0.48358777 0.078580901 4278190335
0.85702205 -0.53523099 0.077493861 4278190335
0.53157175 -0.9771769 0.083989799 4278190335
0.88304901 -0.56873041 0.076679736 4278190335
0.5399152 -0.98520774 0.087013885 4278190335
0.94361329 -0.52222085 0.075945526 4278190335
0.56771684 -1.0060325 0.083031356 4278190335
0.96817541 -0.53390896 0.076596692 4278190335
0.57921827 -1.0123671 0.084416375 4278190335
0.62441576 -0.99884307 0.081234008 4278190335
0.61619854 -1.0078161 0.081714198 4278190335
1.3302656 -0.18388581 0.067654222 4278190335
0.95208383 -0.85891986 0.073480129 4278190335
-0.63756108 1.3661914 0.12511697 4278190335
-0.62615299 1.3623912 0.12886575 4278190335
-0.6123215 1.3724242 0.12416691 4278190335
-0.62406051 1.3495209 0.12594733 4278190335
-0.59541559 1.3660928 0.12509242 4278190335
-0.54556477 1.3913766 0.12561968 4278190335
-0.56438094 1.3714739 0.12604597 4278190335
-0.60124576 1.3030645 0.12756371 4278190335
-0.6002332 1.2817963 0.12429762 4278190335
-0.56173849 1.2435426 0.12620062 4278190335
-0.48868188 1.2328444 0.12223676 4278190335
-1.1990559 0.34069085 0.13656607 4278190335
-0.46060148 1.2358057 0.12254453 4278190335
-0.40552995 1.2628192 0.12111548 4278190335
-1.1763524 0.32546809 0.13589671 4278190335
-0.34063554 1.3366114 0.12243789 4278190335
-0.38731933 1.2801877 0.12347695 4278190335
-0.34936419 1.3172253 0.12137583 4278190335
-0.36156848 1.2987546 0.12133369 4278190335
-0.37063959 1.2891889 0.12093681 4278190335
-0.32540199 1.3406484 0.12161219 4278190335
-0.3342312 1.3271879 0.11852074 4278190335
-1.1618676 0.3195706 0.13332263 4278190335
-0.34295806 1.3059888 0.11808169 4278190335
-1.1801401 0.28875148 0.13630202 4278190335
-1.1928443 0.25819421 0.13520303 4278190335
-1.1456999 0.28311118 0.13620788 4278190335
-0.27080989 1.3260821 0.11651263 4278190335
-0.2586903 1.3183898 0.11626264 4278190335
-1.1358213 0.20432353 0.13456237 4278190335
-0.99553847 0.34052405 0.13005137 4278190335
-0.98731065 0.30166796 0.12932214 4278190335
-0.96462166 0.31112996 0.12885678 4278190335
-0.99266243 0.27965632 0.13135597 4278190335
-0.18364266 1.2544332 0.11397803 4278190335
-0.17209387 1.2470391 0.11596531 4278190335
-1.0261683 0.1910791 0.12952274 4278190335
-0.14160141 1.2435274 0.11314413 4278190335
-0.025478572 1.3727266 0.11443534 4278190335
-0.020009637 1.361329 0.11263216 4278190335
-0.94747138 0.21336538 0.12993011 4278190335
-0.9358989 0.21689363 0.13137892 4278190335
-0.081295617 1.2395535 0.11139584 4278190335
-0.043507133 1.2524809 0.11516634 4278190335
-0.053526524 1.2458526 0.11069825 4278190335
0.0062190741 1.2996967 0.11230871 4278190335
-0.028792091 1.257726 0.11130375 4278190335
-0.31850147 -0.62766939 0.10958698 4278190335
-0.32358602 -0.63854784 0.1122531 4278190335
-0.30512556 -0.62791353 0.11200234 4278190335
-0.32573187 -0.65295237 0.11290389 4278190335
-0.27308747 -0.61803865 0.1112259 4278190335
-0.26158869 -0.61322832 0.11085108 4278190335
-0.24972408 -0.61202264 0.11205661 4278190335
-0.32249707 -0.70963681 0.11057228 4278190335
-0.31836861 -0.72223091 0.11002472 4278190335
-0.31478995 -0.73418248 0.10987276 4278190335
-0.31298605 -0.74622327 0.10801101 4278190335
-0.19041002 -0.62413335 0.10732886 4278190335
-0.30117118 -0.75780803 0.11010692 4278190335
-0.17498325 -0.6289221 0.10844949 4278190335
-0.29247606 -0.77551973 0.10739151 4278190335
-0.11981064 -0.63210607 0.10854822 4278190335
-0.25318432 -0.80768907 0.10915199 4278190335
0.1841968 -0.27680045 0.099259675 4278190335
-0.23895094 -0.807127 0.10903504 4278190335
-0.22699641 -0.8008303 0.11045694 4278190335
0.22067958 -0.26788473 0.098575711 4278190335
-0.20443618 -0.7888512 0.1087999 4278190335
0.20887691 -0.30378947 0.098625124 4278190335
-0.08301241 -0.68278509 0.10678965 4278190335
0.25051033 -0.28377026 0.097970009 4278190335
0.21290427 -0.33107486 0.097781748 4278190335
0.28737617 -0.25882363 0.10000873 4278190335
0.27676263 -0.26513457 0.10022151 4278190335
0.24497557 -0.31048191 0.097413987 4278190335
0.25548023 -0.3023293 0.097277462 4278190335
-0.078818254 -0.7118243 0.10724556 4278190335
-0.11536643 -0.77333117 0.10444579 4278190335
-0.12379979 -0.78726119 0.10718593 4278190335
0.12200736 -0.53681505 0.10217351 4278190335
-0.073244072 -0.83966047 0.10424057 4278190335
-0.079105832 -0.85160959 0.10540512 4278190335
-0.025829591 -0.79716659 0.10237882 4278190335
-0.08318156 -0.86283332 0.10669744 4278190335
0.1890955 -0.56003726 0.099500924 4278190335
0.12544039 -0.63156796 0.10182458 4278190335
0.21608624 -0.56583858 0.096624613 4278190335
-0.094828546 -0.96380466 0.10622936 4278190335
0.20259345 -0.61775386 0.10155565 4278190335
-0.091733664 -0.97669494 0.10274985 4278190335
0.25578469 -0.56881273 0.098018646 4278190335
-0.087010413 -0.98846871 0.10446045 4278190335
0.21921116 -0.62179905 0.09702453 4278190335
-0.075913161 -1.0093894 0.10364538 4278190335
-0.061720368 -1.0301976 0.1035997 4278190335
0.34164956 -0.54669803 0.095329612 4278190335
0.26122752 -0.64103925 0.098845631 4278190335
0.62874544 -0.2089712 0.089295551 4278190335
0.50506055 -0.36445189 0.092747644 4278190335
-0.039431181 -1.0558251 0.10331383 4278190335
0.42400953 -0.50873846 0.093756616 4278190335
0.51991439 -0.3965933 0.091972202 4278190335
0.64110649 -0.25911793 0.092043594 4278190335
0.45135966 -0.48549798 0.094092324 4278190335
0.6182723 -0.29685178 0.089008018 4278190335
0.62775588 -0.28846997 0.092228413 4278190335
0.61099696 -0.30745688 0.088931516 4278190335
0.52127397 -0.422032 0.09167695 4278190335
0.50172782 -0.44638234 0.093364209 4278190335
0.5950954 -0.34130263 0.092084303 4278190335
0.41331616 -0.57501674 0.092740625 4278190335
0.73842835 -0.20225091 0.090984926 4278190335
0.053321123 -1.0530024 0.10135251 4278190335
0.75197506 -0.21518524 0.085863516 4278190335
0.60895026 -0.38859546 0.093126103 4278190335
0.49456105 -0.54760355 0.094904661 4278190335
0.76041901 -0.23641767 0.0877188 4278190335
0.52154958 -0.54077971 0.089690015 4278190335
0.38195625 -0.70630687 0.093630686 4278190335
0.95802271 -0.020457067 0.081918254 4278190335
0.99984229 0.020139411 0.082936525 4278190335
0.95344329 -0.032727137 0.084038526 4278190335
1.0174019 0.028899346 0.085286379 4278190335
0.56332552 -0.53078139 0.092275694 4278190335
0.45539698 -0.67397839 0.094204545 4278190335
0.7775749 -0.29186767 0.086675555 4278190335
