# .PCD v0.7 - Point Cloud Data file format
VERSION 0.7
FIELDS x y z rgb
SIZE 4 4 4 4
TYPE F F F U
COUNT 1 1 1 1
WIDTH 1010
HEIGHT 1
VIEWPOINT 0 0 0 1 0 0 0
POINTS 1010
DATA ascii
-0.015709648 0.14392585 0.017236935 4278190335
-0.015709648 0.14852972 0.016791316 4278190335
-0.015709648 0.15313359 0.017775891 4278190335
-0.015709648 0.15773746 0.015631955 4278190335
-0.015709648 0.16234134 0.013488019 4278190335
-0.015709648 0.1669452 0.011158495 4278190335
-0.011105776 -0.13230643 0.011920939 4278190335
-0.011105776 -0.12770256 0.01135843 4278190335
-0.011105776 -0.12309869 0.011058385 4278190335
-0.011105776 -0.11849482 0.010758347 4278190335
-0.011105776 -0.10007934 0.018515181 4278190335
-0.011105776 -0.095475465 0.019745233 4278190335
-0.011105776 -0.090871587 0.019445164 4278190335
-0.011105776 -0.086267717 0.019145126 4278190335
-0.011105776 -0.081663847 0.018845065 4278190335
-0.011105776 -0.077059977 0.01854503 4278190335
-0.011105776 -0.072456107 0.017083077 4278190335
-0.011105776 -0.067852236 0.013007397 4278190335
-0.011105776 -0.021813519 0.021142127 4278190335
-0.011105776 -0.017209649 0.024558736 4278190335
-0.011105776 -0.012605777 0.025061404 4278190335
-0.011105776 -0.0080019059 0.025359621 4278190335
-0.011105776 -0.0033980345 0.025439974 4278190335
-0.011105776 0.001205837 0.026377061 4278190335
-0.011105776 0.0058097085 0.027872158 4278190335
-0.011105776 0.01041358 0.02769758 4278190335
-0.011105776 0.015017451 0.026193203 4278190335
-0.011105776 0.019621322 0.023864456 4278190335
-0.011105776 0.024225194 0.022362011 4278190335
-0.011105776 0.028829066 0.018521518 4278190335
-0.011105776 0.061056167 0.01126244 4278190335
-0.011105776 0.065660037 0.020589888 4278190335
-0.011105776 0.070263907 0.022289239 4278190335
-0.011105776 0.074867778 0.022126738 4278190335
-0.011105776 0.079471648 0.020339834 4278190335
-0.011105776 0.084075525 0.020028463 4278190335
-0.011105776 0.088679396 0.019051751 4278190335
-0.011105776 0.093283266 0.016149601 4278190335
-0.011105776 0.097887136 0.013269546 4278190335
-0.011105776 0.10249101 0.01085049 4278190335
-0.011105776 0.12090649 0.010286523 4278190335
-0.011105776 0.12551036 0.013636734 4278190335
-0.011105776 0.13011424 0.015970616 4278190335
-0.011105776 0.13471811 0.015697842 4278190335
-0.011105776 0.13932198 0.01514596 4278190335
-0.011105776 0.14392585 0.013056796 4278190335
-0.011105776 0.14852972 0.013240788 4278190335
-0.011105776 0.15313359 0.014539866 4278190335
-0.011105776 0.15773746 0.01239593 4278190335
-0.0065019042 -0.13230643 0.016650312 4278190335
-0.0065019042 -0.12770256 0.016510582 4278190335
-0.0065019042 -0.12309869 0.017683672 4278190335
-0.0065019042 -0.11849482 0.017154403 4278190335
-0.0065019042 -0.11389095 0.019243564 4278190335
-0.0065019042 -0.10928708 0.024605749 4278190335
-0.0065019042 -0.10468321 0.0269375 4278190335
-0.0065019042 -0.10007934 0.02667056 4278190335
-0.0065019042 -0.095475465 0.024872364 4278190335
-0.0065019042 -0.090871587 0.024572311 4278190335
-0.0065019042 -0.086267717 0.024272267 4278190335
-0.0065019042 -0.081663847 0.023972182 4278190335
-0.0065019042 -0.077059977 0.023066003 4278190335
-0.0065019042 -0.072456107 0.019714328 4278190335
-0.0065019042 -0.067852236 0.016397955 4278190335
-0.0065019042 -0.063248366 0.013115695 4278190335
-0.0065019042 -0.026417391 0.015299444 4278190335
-0.0065019042 -0.021813519 0.023566741 4278190335
-0.0065019042 -0.017209649 0.025582898 4278190335
-0.0065019042 -0.012605777 0.025942652 4278190335
-0.0065019042 -0.0080019059 0.025853157 4278190335
-0.0065019042 -0.0033980345 0.026717862 4278190335
-0.0065019042 0.001205837 0.028207095 4278190335
-0.0065019042 0.0058097085 0.029379221 4278190335
-0.0065019042 0.01041358 0.029919473 4278190335
-0.0065019042 0.015017451 0.027011124 4278190335
-0.0065019042 0.019621322 0.024748519 4278190335
-0.0065019042 0.024225194 0.023511101 4278190335
-0.0065019042 0.028829066 0.019832503 4278190335
-0.0065019042 0.033432938 0.010286411 4278190335
-0.0065019042 0.056452293 0.010452152 4278190335
-0.0065019042 0.061056167 0.019821506 4278190335
-0.0065019042 0.065660037 0.023274867 4278190335
-0.0065019042 0.070263907 0.025693316 4278190335
-0.0065019042 0.074867778 0.025755709 4278190335
-0.0065019042 0.079471648 0.024880383 4278190335
-0.0065019042 0.084075525 0.023657434 4278190335
-0.0065019042 0.088679396 0.022839619 4278190335
-0.0065019042 0.093283266 0.021559188 4278190335
-0.0065019042 0.097887136 0.018945163 4278190335
-0.0065019042 0.10249101 0.015830336 4278190335
-0.0065019042 0.10709488 0.012603507 4278190335
-0.0065019042 0.12090649 0.010385296 4278190335
-0.0065019042 0.12551036 0.013220632 4278190335
-0.0065019042 0.13011424 0.012916358 4278190335
-0.0065019042 0.13471811 0.01250616 4278190335
-0.0018980328 -0.1369103 0.014271765 4278190335
-0.0018980328 -0.13230643 0.019661054 4278190335
-0.0018980328 -0.12770256 0.021928865 4278190335
-0.0018980328 -0.12309869 0.023450494 4278190335
-0.0018980328 -0.11849482 0.02456096 4278190335
-0.0018980328 -0.11389095 0.027435841 4278190335
-0.0018980328 -0.10928708 0.029900067 4278190335
-0.0018980328 -0.10468321 0.030324703 4278190335
-0.0018980328 -0.10007934 0.03007116 4278190335
-0.0018980328 -0.095475465 0.028501337 4278190335
-0.0018980328 -0.090871587 0.027851051 4278190335
-0.0018980328 -0.086267717 0.027450496 4278190335
-0.0018980328 -0.081663847 0.026970049 4278190335
-0.0018980328 -0.077059977 0.026369922 4278190335
-0.0018980328 -0.072456107 0.023094879 4278190335
-0.0018980328 -0.067852236 0.019405816 4278190335
-0.0018980328 -0.063248366 0.016518649 4278190335
-0.0018980328 -0.058644492 0.012949306 4278190335
-0.0018980328 -0.026417391 0.020889288 4278190335
-0.0018980328 -0.021813519 0.024387218 4278190335
-0.0018980328 -0.017209649 0.026038473 4278190335
-0.0018980328 -0.012605777 0.026857084 4278190335
-0.0018980328 -0.0080019059 0.026940871 4278190335
-0.0018980328 -0.0033980345 0.027596273 4278190335
-0.0018980328 0.001205837 0.029694216 4278190335
-0.0018980328 0.0058097085 0.030175289 4278190335
-0.0018980328 0.01041358 0.02988058 4278190335
-0.0018980328 0.015017451 0.027683435 4278190335
-0.0018980328 0.019621322 0.025003072 4278190335
-0.0018980328 0.024225194 0.023926226 4278190335
-0.0018980328 0.028829066 0.017621703 4278190335
-0.0018980328 0.056452293 0.013221567 4278190335
-0.0018980328 0.061056167 0.020980703 4278190335
-0.0018980328 0.065660037 0.024106339 4278190335
-0.0018980328 0.070263907 0.027831987 4278190335
-0.0018980328 0.074867778 0.02803186 4278190335
-0.0018980328 0.079471648 0.027872568 4278190335
-0.0018980328 0.084075525 0.028318239 4278190335
-0.0018980328 0.088679396 0.026986388 4278190335
-0.0018980328 0.093283266 0.025156785 4278190335
-0.0018980328 0.097887136 0.022314627 4278190335
-0.0018980328 0.10249101 0.018318791 4278190335
-0.0018980328 0.10709488 0.014582462 4278190335
-0.0018980328 0.11169875 0.011651834 4278190335
-0.0018980328 0.12090649 0.01047065 4278190335
-0.0018980328 0.12551036 0.010134874 4278190335
0.0027058385 -0.1369103 0.019244986 4278190335
0.0027058385 -0.13230643 0.023056446 4278190335
0.0027058385 -0.12770256 0.024943076 4278190335
0.0027058385 -0.12309869 0.026105484 4278190335
0.0027058385 -0.11849482 0.02799274 4278190335
0.0027058385 -0.11389095 0.02991217 4278190335
0.0027058385 -0.10928708 0.031787846 4278190335
0.0027058385 -0.10468321 0.032631464 4278190335
0.0027058385 -0.10007934 0.032123879 4278190335
0.0027058385 -0.095475465 0.029983629 4278190335
0.0027058385 -0.090871587 0.029189732 4278190335
0.0027058385 -0.086267717 0.028261818 4278190335
0.0027058385 -0.081663847 0.028208464 4278190335
0.0027058385 -0.077059977 0.027630908 4278190335
0.0027058385 -0.072456107 0.026188856 4278190335
0.0027058385 -0.067852236 0.022600615 4278190335
0.0027058385 -0.063248366 0.018607134 4278190335
0.0027058385 -0.058644492 0.014920841 4278190335
0.0027058385 -0.035625134 0.010182228 4278190335
0.0027058385 -0.031021263 0.018297302 4278190335
0.0027058385 -0.026417391 0.022297714 4278190335
0.0027058385 -0.021813519 0.025132885 4278190335
0.0027058385 -0.017209649 0.02682695 4278190335
0.0027058385 -0.012605777 0.027802717 4278190335
0.0027058385 -0.0080019059 0.028914457 4278190335
0.0027058385 -0.0033980345 0.029846838 4278190335
0.0027058385 0.001205837 0.030235015 4278190335
0.0027058385 0.0058097085 0.029830746 4278190335
0.0027058385 0.01041358 0.029032087 4278190335
0.0027058385 0.015017451 0.027718013 4278190335
0.0027058385 0.019621322 0.025472846 4278190335
0.0027058385 0.024225194 0.024211589 4278190335
0.0027058385 0.028829066 0.017582616 4278190335
0.0027058385 0.056452293 0.014791824 4278190335
0.0027058385 0.061056167 0.022483196 4278190335
0.0027058385 0.065660037 0.026006714 4278190335
0.0027058385 0.070263907 0.029218743 4278190335
0.0027058385 0.074867778 0.029761713 4278190335
0.0027058385 0.079471648 0.029732166 4278190335
0.0027058385 0.084075525 0.030915376 4278190335
0.0027058385 0.088679396 0.03135005 4278190335
0.0027058385 0.093283266 0.028708072 4278190335
0.0027058385 0.097887136 0.025738744 4278190335
0.0027058385 0.10249101 0.020416161 4278190335
0.0027058385 0.10709488 0.015368896 4278190335
0.0027058385 0.11169875 0.011470304 4278190335
0.0073097101 -0.1369103 0.018026173 4278190335
0.0073097101 -0.13230643 0.024857918 4278190335
0.0073097101 -0.12770256 0.026209578 4278190335
0.0073097101 -0.12309869 0.027754912 4278190335
0.0073097101 -0.11849482 0.029184893 4278190335
0.0073097101 -0.11389095 0.031101571 4278190335
0.0073097101 -0.10928708 0.032392737 4278190335
0.0073097101 -0.10468321 0.032912672 4278190335
0.0073097101 -0.10007934 0.032816332 4278190335
0.0073097101 -0.095475465 0.031452116 4278190335
0.0073097101 -0.090871587 0.029922102 4278190335
0.0073097101 -0.086267717 0.028807905 4278190335
0.0073097101 -0.081663847 0.02871236 4278190335
0.0073097101 -0.077059977 0.028100749 4278190335
0.0073097101 -0.072456107 0.027699187 4278190335
0.0073097101 -0.067852236 0.024491275 4278190335
0.0073097101 -0.063248366 0.020021927 4278190335
0.0073097101 -0.058644492 0.015097472 4278190335
0.0073097101 -0.035625134 0.014624603 4278190335
0.0073097101 -0.031021263 0.018856836 4278190335
0.0073097101 -0.026417391 0.023150459 4278190335
0.0073097101 -0.021813519 0.025590478 4278190335
0.0073097101 -0.017209649 0.027458027 4278190335
0.0073097101 -0.012605777 0.029283902 4278190335
0.0073097101 -0.0080019059 0.030704673 4278190335
0.0073097101 -0.0033980345 0.030687464 4278190335
0.0073097101 0.001205837 0.030158924 4278190335
0.0073097101 0.0058097085 0.029011892 4278190335
0.0073097101 0.01041358 0.028222164 4278190335
0.0073097101 0.015017451 0.027429322 4278190335
0.0073097101 0.019621322 0.026653046 4278190335
0.0073097101 0.024225194 0.025510725 4278190335
0.0073097101 0.028829066 0.018643897 4278190335
0.0073097101 0.033432938 0.01037804 4278190335
0.0073097101 0.056452293 0.015129588 4278190335
0.0073097101 0.061056167 0.023005562 4278190335
0.0073097101 0.065660037 0.027961111 4278190335
0.0073097101 0.070263907 0.030060969 4278190335
0.0073097101 0.074867778 0.031202201 4278190335
0.0073097101 0.079471648 0.031970661 4278190335
0.0073097101 0.084075525 0.032738384 4278190335
0.0073097101 0.088679396 0.032428999 4278190335
0.0073097101 0.093283266 0.030887555 4278190335
0.0073097101 0.097887136 0.027464787 4278190335
0.0073097101 0.10249101 0.022167115 4278190335
0.0073097101 0.10709488 0.016302699 4278190335
0.0073097101 0.11169875 0.012120556 4278190335
0.011913582 -0.1369103 0.014025609 4278190335
0.011913582 -0.13230643 0.022049291 4278190335
0.011913582 -0.12770256 0.026720028 4278190335
0.011913582 -0.12309869 0.028255781 4278190335
0.011913582 -0.11849482 0.029806677 4278190335
0.011913582 -0.11389095 0.031831507 4278190335
0.011913582 -0.10928708 0.033064306 4278190335
0.011913582 -0.10468321 0.033441514 4278190335
0.011913582 -0.10007934 0.033285402 4278190335
0.011913582 -0.095475465 0.032208771 4278190335
0.011913582 -0.090871587 0.02990526 4278190335
0.011913582 -0.086267717 0.029246949 4278190335
0.011913582 -0.081663847 0.029190779 4278190335
0.011913582 -0.077059977 0.028895432 4278190335
0.011913582 -0.072456107 0.027092269 4278190335
0.011913582 -0.067852236 0.023053147 4278190335
0.011913582 -0.063248366 0.019730348 4278190335
0.011913582 -0.058644492 0.011820171 4278190335
0.011913582 -0.040229004 0.013317273 4278190335
0.011913582 -0.035625134 0.016353656 4278190335
0.011913582 -0.031021263 0.020142294 4278190335
0.011913582 -0.026417391 0.023626724 4278190335
0.011913582 -0.021813519 0.026524328 4278190335
0.011913582 -0.017209649 0.028031224 4278190335
0.011913582 -0.012605777 0.02978245 4278190335
0.011913582 -0.0080019059 0.031167451 4278190335
0.011913582 -0.0033980345 0.030794235 4278190335
0.011913582 0.001205837 0.02898556 4278190335
0.011913582 0.0058097085 0.027641894 4278190335
0.011913582 0.01041358 0.026974306 4278190335
0.011913582 0.015017451 0.026611218 4278190335
0.011913582 0.019621322 0.026056411 4278190335
0.011913582 0.024225194 0.022947457 4278190335
0.011913582 0.028829066 0.018188352 4278190335
0.011913582 0.033432938 0.010105207 4278190335
0.011913582 0.056452293 0.015477434 4278190335
0.011913582 0.061056167 0.023047669 4278190335
0.011913582 0.065660037 0.028282685 4278190335
0.011913582 0.070263907 0.031683955 4278190335
0.011913582 0.074867778 0.034025665 4278190335
0.011913582 0.079471648 0.033863176 4278190335
0.011913582 0.084075525 0.033890944 4278190335
0.011913582 0.088679396 0.033538751 4278190335
0.011913582 0.093283266 0.031544596 4278190335
0.011913582 0.097887136 0.027921392 4278190335
0.011913582 0.10249101 0.022548974 4278190335
0.011913582 0.10709488 0.017137999 4278190335
0.011913582 0.11169875 0.012278499 4278190335
0.016517453 -0.1369103 0.012923445 4278190335
0.016517453 -0.13230643 0.020486375 4278190335
0.016517453 -0.12770256 0.026929365 4278190335
0.016517453 -0.12309869 0.028301479 4278190335
0.016517453 -0.11849482 0.030374285 4278190335
0.016517453 -0.11389095 0.033455785 4278190335
0.016517453 -0.10928708 0.034056533 4278190335
0.016517453 -0.10468321 0.033525676 4278190335
0.016517453 -0.10007934 0.032680955 4278190335
0.016517453 -0.095475465 0.031998787 4278190335
0.016517453 -0.090871587 0.030993186 4278190335
0.016517453 -0.086267717 0.030431742 4278190335
0.016517453 -0.081663847 0.030795842 4278190335
0.016517453 -0.077059977 0.028603096 4278190335
0.016517453 -0.072456107 0.025057472 4278190335
0.016517453 -0.067852236 0.021340854 4278190335
0.016517453 -0.063248366 0.017302675 4278190335
0.016517453 -0.058644492 0.010400635 4278190335
0.016517453 -0.044832878 0.010062121 4278190335
0.016517453 -0.040229004 0.015421776 4278190335
0.016517453 -0.035625134 0.019082686 4278190335
0.016517453 -0.031021263 0.022288483 4278190335
0.016517453 -0.026417391 0.025442084 4278190335
0.016517453 -0.021813519 0.026923772 4278190335
0.016517453 -0.017209649 0.028905662 4278190335
0.016517453 -0.012605777 0.030117508 4278190335
0.016517453 -0.0080019059 0.030271854 4278190335
0.016517453 -0.0033980345 0.029397639 4278190335
0.016517453 0.001205837 0.027899574 4278190335
0.016517453 0.0058097085 0.026015297 4278190335
0.016517453 0.01041358 0.025380693 4278190335
0.016517453 0.015017451 0.025586301 4278190335
0.016517453 0.019621322 0.022405261 4278190335
0.016517453 0.024225194 0.018307285 4278190335
0.016517453 0.028829066 0.014209311 4278190335
0.016517453 0.056452293 0.014824405 4278190335
0.016517453 0.061056167 0.023765421 4278190335
0.016517453 0.065660037 0.031426597 4278190335
0.016517453 0.070263907 0.034992814 4278190335
0.016517453 0.074867778 0.034805186 4278190335
0.016517453 0.079471648 0.034875903 4278190335
0.016517453 0.084075525 0.034272738 4278190335
0.016517453 0.088679396 0.033089168 4278190335
0.016517453 0.093283266 0.031398725 4278190335
0.016517453 0.097887136 0.027450774 4278190335
0.016517453 0.10249101 0.022740874 4278190335
0.016517453 0.10709488 0.017323807 4278190335
0.016517453 0.11169875 0.013167765 4278190335
0.021121325 -0.1369103 0.013508257 4278190335
0.021121325 -0.13230643 0.020556686 4278190335
0.021121325 -0.12770256 0.026725342 4278190335
0.021121325 -0.12309869 0.028516944 4278190335
0.021121325 -0.11849482 0.032066982 4278190335
0.021121325 -0.11389095 0.03654968 4278190335
0.021121325 -0.10928708 0.036711421 4278190335
0.021121325 -0.10468321 0.035162944 4278190335
0.021121325 -0.10007934 0.033772495 4278190335
0.021121325 -0.095475465 0.033672273 4278190335
0.021121325 -0.090871587 0.032837622 4278190335
0.021121325 -0.086267717 0.029734667 4278190335
0.021121325 -0.081663847 0.026780745 4278190335
0.021121325 -0.077059977 0.024728334 4278190335
0.021121325 -0.072456107 0.021755723 4278190335
0.021121325 -0.067852236 0.018397579 4278190335
0.021121325 -0.063248366 0.01520152 4278190335
0.021121325 -0.044832878 0.01057929 4278190335
0.021121325 -0.040229004 0.016437611 4278190335
0.021121325 -0.035625134 0.022219013 4278190335
0.021121325 -0.031021263 0.025533637 4278190335
0.021121325 -0.026417391 0.026118364 4278190335
0.021121325 -0.021813519 0.027542328 4278190335
0.021121325 -0.017209649 0.029622236 4278190335
0.021121325 -0.012605777 0.030390816 4278190335
0.021121325 -0.0080019059 0.029506154 4278190335
0.021121325 -0.0033980345 0.028143955 4278190335
0.021121325 0.001205837 0.02638031 4278190335
0.021121325 0.0058097085 0.025053998 4278190335
0.021121325 0.01041358 0.024269277 4278190335
0.021121325 0.015017451 0.023156883 4278190335
0.021121325 0.019621322 0.018612562 4278190335
0.021121325 0.024225194 0.014068239 4278190335
0.021121325 0.056452293 0.013644308 4278190335
0.021121325 0.061056167 0.023317927 4278190335
0.021121325 0.065660037 0.031008301 4278190335
0.021121325 0.070263907 0.035762347 4278190335
0.021121325 0.074867778 0.034114834 4278190335
0.021121325 0.079471648 0.033357549 4278190335
0.021121325 0.084075525 0.03259987 4278190335
0.021121325 0.088679396 0.03090943 4278190335
0.021121325 0.093283266 0.029477129 4278190335
0.021121325 0.097887136 0.026663484 4278190335
0.021121325 0.10249101 0.021848483 4278190335
0.021121325 0.10709488 0.017189171 4278190335
0.021121325 0.11169875 0.013152625 4278190335
0.021121325 0.11630262 0.010153637 4278190335
0.025725195 -0.1369103 0.015651386 4278190335
0.025725195 -0.13230643 0.022071844 4278190335
0.025725195 -0.12770256 0.027166933 4278190335
0.025725195 -0.12309869 0.030705299 4278190335
0.025725195 -0.11849482 0.03304822 4278190335
0.025725195 -0.11389095 0.033723537 4278190335
0.025725195 -0.10928708 0.034407064 4278190335
0.025725195 -0.10468321 0.035090592 4278190335
0.025725195 -0.10007934 0.035619877 4278190335
0.025725195 -0.095475465 0.035452958 4278190335
0.025725195 -0.090871587 0.031310618 4278190335
0.025725195 -0.086267717 0.02713782 4278190335
0.025725195 -0.081663847 0.023941018 4278190335
0.025725195 -0.077059977 0.02047126 4278190335
0.025725195 -0.072456107 0.018266497 4278190335
0.025725195 -0.067852236 0.014908353 4278190335
0.025725195 -0.063248366 0.012138358 4278190335
0.025725195 -0.044832878 0.011054525 4278190335
0.025725195 -0.040229004 0.016673164 4278190335
0.025725195 -0.035625134 0.023155924 4278190335
0.025725195 -0.031021263 0.026576713 4278190335
0.025725195 -0.026417391 0.027321562 4278190335
0.025725195 -0.021813519 0.028461531 4278190335
0.025725195 -0.017209649 0.028602976 4278190335
0.025725195 -0.012605777 0.028621929 4278190335
0.025725195 -0.0080019059 0.028676718 4278190335
0.025725195 -0.0033980345 0.027096048 4278190335
0.025725195 0.001205837 0.025148839 4278190335
0.025725195 0.0058097085 0.02420979 4278190335
0.025725195 0.01041358 0.023512697 4278190335
0.025725195 0.024225194 0.013331093 4278190335
0.025725195 0.056452293 0.0129058 4278190335
0.025725195 0.061056167 0.021305891 4278190335
0.025725195 0.065660037 0.02579372 4278190335
0.025725195 0.070263907 0.031036632 4278190335
0.025725195 0.074867778 0.03267647 4278190335
0.025725195 0.079471648 0.031497981 4278190335
0.025725195 0.084075525 0.030420134 4278190335
0.025725195 0.088679396 0.028909324 4278190335
0.025725195 0.093283266 0.027582221 4278190335
0.025725195 0.097887136 0.025948985 4278190335
0.025725195 0.10249101 0.021118622 4278190335
0.025725195 0.10709488 0.016618701 4278190335
0.025725195 0.11169875 0.013698448 4278190335
0.025725195 0.11630262 0.010714861 4278190335
0.030329067 -0.14151418 0.010800981 4278190335
0.030329067 -0.1369103 0.015851267 4278190335
0.030329067 -0.13230643 0.021463983 4278190335
0.030329067 -0.12770256 0.025191193 4278190335
0.030329067 -0.12309869 0.02804848 4278190335
0.030329067 -0.11849482 0.029720703 4278190335
0.030329067 -0.11389095 0.030433264 4278190335
0.030329067 -0.10928708 0.031145822 4278190335
0.030329067 -0.10468321 0.031858385 4278190335
0.030329067 -0.10007934 0.032349683 4278190335
0.030329067 -0.095475465 0.031183243 4278190335
0.030329067 -0.090871587 0.028796729 4278190335
0.030329067 -0.086267717 0.024788236 4278190335
0.030329067 -0.081663847 0.020824287 4278190335
0.030329067 -0.077059977 0.017630525 4278190335
0.030329067 -0.072456107 0.014299661 4278190335
0.030329067 -0.067852236 0.011419126 4278190335
0.030329067 -0.044832878 0.011053786 4278190335
0.030329067 -0.040229004 0.016419137 4278190335
0.030329067 -0.035625134 0.020262541 4278190335
0.030329067 -0.031021263 0.024698224 4278190335
0.030329067 -0.026417391 0.025245087 4278190335
0.030329067 -0.021813519 0.026063744 4278190335
0.030329067 -0.017209649 0.026384501 4278190335
0.030329067 -0.012605777 0.026461829 4278190335
0.030329067 -0.0080019059 0.026480781 4278190335
0.030329067 -0.0033980345 0.026107399 4278190335
0.030329067 0.001205837 0.024758611 4278190335
0.030329067 0.0058097085 0.023275726 4278190335
0.030329067 0.019621322 0.015964089 4278190335
0.030329067 0.024225194 0.012923325 4278190335
0.030329067 0.056452293 0.013320261 4278190335
0.030329067 0.061056167 0.022345124 4278190335
0.030329067 0.065660037 0.025216741 4278190335
0.030329067 0.070263907 0.028023917 4278190335
0.030329067 0.074867778 0.030548938 4278190335
0.030329067 0.079471648 0.029638413 4278190335
0.030329067 0.084075525 0.028341519 4278190335
0.030329067 0.088679396 0.027014416 4278190335
0.030329067 0.093283266 0.025687311 4278190335
0.030329067 0.097887136 0.024360208 4278190335
0.030329067 0.10249101 0.020404125 4278190335
0.030329067 0.10709488 0.016060742 4278190335
0.030329067 0.11169875 0.01305267 4278190335
0.030329067 0.11630262 0.011566898 4278190335
0.034932937 -0.14151418 0.010944194 4278190335
0.034932937 -0.1369103 0.015997605 4278190335
0.034932937 -0.13230643 0.019841161 4278190335
0.034932937 -0.12770256 0.022075426 4278190335
0.034932937 -0.12309869 0.024309691 4278190335
0.034932937 -0.11849482 0.02692786 4278190335
0.034932937 -0.11389095 0.027226377 4278190335
0.034932937 -0.10928708 0.027938938 4278190335
0.034932937 -0.10468321 0.028651496 4278190335
0.034932937 -0.10007934 0.029364057 4278190335
0.034932937 -0.095475465 0.026488392 4278190335
0.034932937 -0.090871587 0.025555721 4278190335
0.034932937 -0.086267717 0.022005519 4278190335
0.034932937 -0.081663847 0.018265855 4278190335
0.034932937 -0.077059977 0.014510753 4278190335
0.034932937 -0.072456107 0.011316992 4278190335
0.034932937 -0.040229004 0.014356564 4278190335
0.034932937 -0.035625134 0.019306231 4278190335
0.034932937 -0.031021263 0.021236423 4278190335
0.034932937 -0.026417391 0.022134196 4278190335
0.034932937 -0.021813519 0.023031967 4278190335
0.034932937 -0.017209649 0.023929738 4278190335
0.034932937 -0.012605777 0.02430173 4278190335
0.034932937 -0.0080019059 0.024320683 4278190335
0.034932937 -0.0033980345 0.024018539 4278190335
0.034932937 0.001205837 0.023485914 4278190335
0.034932937 0.0058097085 0.022377582 4278190335
0.034932937 0.01041358 0.020154418 4278190335
0.034932937 0.015017451 0.016895596 4278190335
0.034932937 0.019621322 0.01369597 4278190335
0.034932937 0.024225194 0.010641568 4278190335
0.034932937 0.056452293 0.014063763 4278190335
0.034932937 0.061056167 0.018749133 4278190335
0.034932937 0.065660037 0.021382172 4278190335
0.034932937 0.070263907 0.024015211 4278190335
0.034932937 0.074867778 0.026807919 4278190335
0.034932937 0.079471648 0.027755084 4278190335
0.034932937 0.084075525 0.026446611 4278190335
0.034932937 0.088679396 0.025119506 4278190335
0.034932937 0.093283266 0.023792403 4278190335
0.034932937 0.097887136 0.022465298 4278190335
0.034932937 0.10249101 0.019689627 4278190335
0.034932937 0.10709488 0.015265842 4278190335
0.034932937 0.11169875 0.013705342 4278190335
0.034932937 0.11630262 0.012481317 4278190335
0.034932937 0.12090649 0.011362161 4278190335
0.039536811 -0.14151418 0.010531227 4278190335
0.039536811 -0.13230643 0.016725391 4278190335
0.039536811 -0.12770256 0.018959656 4278190335
0.039536811 -0.12309869 0.021193922 4278190335
0.039536811 -0.11849482 0.024578881 4278190335
0.039536811 -0.11389095 0.024019491 4278190335
0.039536811 -0.10928708 0.024732051 4278190335
0.039536811 -0.10468321 0.025444612 4278190335
0.039536811 -0.10007934 0.026157171 4278190335
0.039536811 -0.095475465 0.023648582 4278190335
0.039536811 -0.090871587 0.021981627 4278190335
0.039536811 -0.086267717 0.018702636 4278190335
0.039536811 -0.081663847 0.015214311 4278190335
0.039536811 -0.077059977 0.011725986 4278190335
0.039536811 -0.040229004 0.013740591 4278190335
0.039536811 -0.035625134 0.017348792 4278190335
0.039536811 -0.031021263 0.018125532 4278190335
0.039536811 -0.026417391 0.019023305 4278190335
0.039536811 -0.012605777 0.021716619 4278190335
0.039536811 -0.0080019059 0.022160582 4278190335
0.039536811 -0.0033980345 0.021929681 4278190335
0.039536811 0.001205837 0.021387763 4278190335
0.039536811 0.0058097085 0.020793028 4278190335
0.039536811 0.01041358 0.019185493 4278190335
0.039536811 0.015017451 0.015475293 4278190335
0.039536811 0.019621322 0.012225194 4278190335
0.039536811 0.056452293 0.012479419 4278190335
0.039536811 0.061056167 0.015238765 4278190335
0.039536811 0.065660037 0.017871805 4278190335
0.039536811 0.070263907 0.020659864 4278190335
0.039536811 0.074867778 0.023584401 4278190335
0.039536811 0.079471648 0.024962051 4278190335
0.039536811 0.084075525 0.024353497 4278190335
0.039536811 0.088679396 0.023062484 4278190335
0.039536811 0.093283266 0.02177147 4278190335
0.039536811 0.097887136 0.0203404 4278190335
0.039536811 0.10249101 0.019192772 4278190335
0.039536811 0.10709488 0.017111136 4278190335
0.039536811 0.11169875 0.014418286 4278190335
0.039536811 0.11630262 0.01394085 4278190335
0.039536811 0.12090649 0.012956338 4278190335
0.039536811 0.12551036 0.012301984 4278190335
0.039536811 0.13011424 0.011768674 4278190335
0.044140682 -0.12770256 0.015843889 4278190335
0.044140682 -0.12309869 0.018078152 4278190335
0.044140682 -0.11849482 0.020666445 4278190335
0.044140682 -0.11389095 0.0216297 4278190335
0.044140682 -0.10928708 0.021525165 4278190335
0.044140682 -0.10468321 0.022237726 4278190335
0.044140682 -0.10007934 0.022950286 4278190335
0.044140682 -0.095475465 0.021316195 4278190335
0.044140682 -0.090871587 0.017385278 4278190335
0.044140682 -0.086267717 0.015548993 4278190335
0.044140682 -0.081663847 0.011911427 4278190335
0.044140682 -0.040229004 0.012152536 4278190335
0.044140682 -0.035625134 0.01411687 4278190335
0.044140682 -0.031021263 0.015014642 4278190335
0.044140682 -0.026417391 0.015912414 4278190335
0.044140682 -0.021813519 0.016810184 4278190335
0.044140682 -0.012605777 0.018605728 4278190335
0.044140682 -0.0080019059 0.019503498 4278190335
0.044140682 -0.0033980345 0.019879477 4278190335
0.044140682 0.001205837 0.01943142 4278190335
0.044140682 0.0058097085 0.018802376 4278190335
0.044140682 0.01041358 0.017594445 4278190335
0.044140682 0.015017451 0.014052002 4278190335
0.044140682 0.019621322 0.01059017 4278190335
0.044140682 0.065660037 0.015388347 4278190335
0.044140682 0.070263907 0.018312883 4278190335
0.044140682 0.074867778 0.02123742 4278190335
0.044140682 0.079471648 0.022748632 4278190335
0.044140682 0.084075525 0.022235883 4278190335
0.044140682 0.088679396 0.020013873 4278190335
0.044140682 0.093283266 0.01848395 4278190335
0.044140682 0.097887136 0.017105371 4278190335
0.044140682 0.10249101 0.01624313 4278190335
0.044140682 0.10709488 0.016968073 4278190335
0.044140682 0.11169875 0.016016236 4278190335
0.044140682 0.11630262 0.01653105 4278190335
0.044140682 0.12090649 0.020404357 4278190335
0.044140682 0.12551036 0.019089138 4278190335
0.044140682 0.13011424 0.017759226 4278190335
0.048744552 -0.11849482 0.01719665 4278190335
0.048744552 -0.11389095 0.019611618 4278190335
0.048744552 -0.10928708 0.018318281 4278190335
0.048744552 -0.10468321 0.019030839 4278190335
0.048744552 -0.10007934 0.0197434 4278190335
0.048744552 -0.095475465 0.018448897 4278190335
0.048744552 -0.090871587 0.014831133 4278190335
0.048744552 -0.086267717 0.012423904 4278190335
0.048744552 -0.040229004 0.010272427 4278190335
0.048744552 -0.035625134 0.011295985 4278190335
0.048744552 -0.031021263 0.012319543 4278190335
0.048744552 -0.026417391 0.013343101 4278190335
0.048744552 -0.021813519 0.014366659 4278190335
0.048744552 -0.017209649 0.015390217 4278190335
0.048744552 -0.012605777 0.016388556 4278190335
0.048744552 -0.0080019059 0.017279489 4278190335
0.048744552 -0.0033980345 0.018157842 4278190335
0.048744552 0.001205837 0.017606549 4278190335
0.048744552 0.0058097085 0.016930185 4278190335
0.048744552 0.01041358 0.015497686 4278190335
0.048744552 0.015017451 0.013339389 4278190335
0.048744552 0.065660037 0.013041366 4278190335
0.048744552 0.070263907 0.015965901 4278190335
0.048744552 0.074867778 0.018890439 4278190335
0.048744552 0.079471648 0.020535214 4278190335
0.048744552 0.084075525 0.02027438 4278190335
0.048744552 0.088679396 0.017727844 4278190335
0.048744552 0.093283266 0.015810477 4278190335
0.048744552 0.097887136 0.015403813 4278190335
0.048744552 0.10249101 0.017076001 4278190335
0.048744552 0.10709488 0.018189343 4278190335
0.048744552 0.11169875 0.018749818 4278190335
0.048744552 0.11630262 0.021071969 4278190335
0.048744552 0.12090649 0.023873245 4278190335
0.048744552 0.12551036 0.023130905 4278190335
0.048744552 0.13011424 0.020671582 4278190335
0.048744552 0.13471811 0.016564678 4278190335
0.053348426 -0.11849482 0.01408088 4278190335
0.053348426 -0.11389095 0.016989077 4278190335
0.053348426 -0.10928708 0.01633154 4278190335
0.053348426 -0.10468321 0.015823955 4278190335
0.053348426 -0.10007934 0.016536513 4278190335
0.053348426 -0.095475465 0.015510698 4278190335
0.053348426 -0.090871587 0.012372283 4278190335
0.053348426 -0.031021263 0.010681737 4278190335
0.053348426 -0.026417391 0.011705295 4278190335
0.053348426 -0.021813519 0.012628658 4278190335
0.053348426 -0.017209649 0.01351959 4278190335
0.053348426 -0.012605777 0.014410522 4278190335
0.053348426 -0.0080019059 0.015301454 4278190335
0.053348426 -0.0033980345 0.016320577 4278190335
0.053348426 0.001205837 0.016226523 4278190335
0.053348426 0.0058097085 0.015273595 4278190335
0.053348426 0.01041358 0.013918162 4278190335
0.053348426 0.015017451 0.012462853 4278190335
0.053348426 0.065660037 0.010959463 4278190335
0.053348426 0.070263907 0.013618921 4278190335
0.053348426 0.074867778 0.016543457 4278190335
0.053348426 0.079471648 0.018321794 4278190335
0.053348426 0.084075525 0.018312875 4278190335
0.053348426 0.088679396 0.017690703 4278190335
0.053348426 0.093283266 0.017930122 4278190335
0.053348426 0.097887136 0.018220829 4278190335
0.053348426 0.10249101 0.019064121 4278190335
0.053348426 0.10709488 0.021194149 4278190335
0.053348426 0.11169875 0.022730641 4278190335
0.053348426 0.11630262 0.024567677 4278190335
0.053348426 0.12090649 0.026267905 4278190335
0.053348426 0.12551036 0.025782075 4278190335
0.053348426 0.13011424 0.02365331 4278190335
0.053348426 0.13471811 0.018629365 4278190335
0.057952296 -0.11849482 0.010965112 4278190335
0.057952296 -0.11389095 0.013284408 4278190335
0.057952296 -0.10928708 0.014644356 4278190335
0.057952296 -0.10468321 0.012717522 4278190335
0.057952296 -0.10007934 0.013329628 4278190335
0.057952296 -0.095475465 0.012572498 4278190335
0.057952296 -0.090871587 0.010041433 4278190335
0.057952296 -0.067852236 0.016658379 4278190335
0.057952296 -0.063248366 0.022125466 4278190335
0.057952296 -0.058644492 0.019566305 4278190335
0.057952296 -0.054040618 0.018082479 4278190335
0.057952296 -0.049436748 0.013751862 4278190335
0.057952296 -0.021813519 0.010650624 4278190335
0.057952296 -0.017209649 0.011541556 4278190335
0.057952296 -0.012605777 0.012432488 4278190335
0.057952296 -0.0080019059 0.01332342 4278190335
0.057952296 -0.0033980345 0.014365936 4278190335
0.057952296 0.001205837 0.014851532 4278190335
0.057952296 0.0058097085 0.013877507 4278190335
0.057952296 0.01041358 0.013015814 4278190335
0.057952296 0.015017451 0.012503521 4278190335
0.057952296 0.019621322 0.01089754 4278190335
0.057952296 0.070263907 0.011616555 4278190335
0.057952296 0.074867778 0.014258626 4278190335
0.057952296 0.079471648 0.016274629 4278190335
0.057952296 0.084075525 0.01687808 4278190335
0.057952296 0.088679396 0.01756425 4278190335
0.057952296 0.093283266 0.01901146 4278190335
0.057952296 0.097887136 0.020260891 4278190335
0.057952296 0.10249101 0.021983618 4278190335
0.057952296 0.10709488 0.02383858 4278190335
0.057952296 0.11169875 0.026304064 4278190335
0.057952296 0.11630262 0.027167806 4278190335
0.057952296 0.12090649 0.028175615 4278190335
0.057952296 0.12551036 0.027352847 4278190335
0.057952296 0.13011424 0.025376938 4278190335
0.057952296 0.13471811 0.022162439 4278190335
0.057952296 0.13932198 0.016339883 4278190335
0.06255617 -0.11389095 0.010083607 4278190335
0.06255617 -0.10928708 0.012021814 4278190335
0.06255617 -0.10468321 0.01103338 4278190335
0.06255617 -0.10007934 0.010122743 4278190335
0.06255617 -0.072456107 0.020877779 4278190335
0.06255617 -0.067852236 0.024322089 4278190335
0.06255617 -0.063248366 0.025499251 4278190335
0.06255617 -0.058644492 0.025484478 4278190335
0.06255617 -0.054040618 0.023577439 4278190335
0.06255617 -0.049436748 0.021676034 4278190335
0.06255617 -0.044832878 0.01793641 4278190335
0.06255617 -0.012605777 0.010208381 4278190335
0.06255617 -0.0080019059 0.01123987 4278190335
0.06255617 -0.0033980345 0.012137456 4278190335
0.06255617 0.001205837 0.012752367 4278190335
0.06255617 0.0058097085 0.013016373 4278190335
0.06255617 0.01041358 0.012949656 4278190335
0.06255617 0.015017451 0.013624812 4278190335
0.06255617 0.019621322 0.013686841 4278190335
0.06255617 0.024225194 0.012398858 4278190335
0.06255617 0.074867778 0.011266892 4278190335
0.06255617 0.079471648 0.014789782 4278190335
0.06255617 0.084075525 0.016425703 4278190335
0.06255617 0.088679396 0.017682586 4278190335
0.06255617 0.093283266 0.019560819 4278190335
0.06255617 0.097887136 0.022219928 4278190335
0.06255617 0.10249101 0.024461558 4278190335
0.06255617 0.10709488 0.027342588 4278190335
0.06255617 0.11169875 0.028847281 4278190335
0.06255617 0.11630262 0.029064314 4278190335
0.06255617 0.12090649 0.029201042 4278190335
0.06255617 0.12551036 0.028478151 4278190335
0.06255617 0.13011424 0.026650019 4278190335
0.06255617 0.13471811 0.023445664 4278190335
0.06255617 0.13932198 0.020408276 4278190335
0.06255617 0.14392585 0.015663357 4278190335
0.06716004 -0.081663847 0.010156878 4278190335
0.06716004 -0.077059977 0.020204188 4278190335
0.06716004 -0.072456107 0.025413699 4278190335
0.06716004 -0.067852236 0.026906986 4278190335
0.06716004 -0.063248366 0.027055113 4278190335
0.06716004 -0.058644492 0.026431806 4278190335
0.06716004 -0.054040618 0.024930328 4278190335
0.06716004 -0.049436748 0.02415669 4278190335
0.06716004 -0.044832878 0.021234199 4278190335
0.06716004 -0.0033980345 0.010752666 4278190335
0.06716004 0.001205837 0.011364439 4278190335
0.06716004 0.0058097085 0.012056903 4278190335
0.06716004 0.01041358 0.013124449 4278190335
0.06716004 0.015017451 0.015062813 4278190335
0.06716004 0.019621322 0.015686369 4278190335
0.06716004 0.024225194 0.015510806 4278190335
0.06716004 0.028829066 0.01521043 4278190335
0.06716004 0.033432938 0.014397307 4278190335
0.06716004 0.038036808 0.010852156 4278190335
0.06716004 0.079471648 0.011820429 4278190335
0.06716004 0.084075525 0.015753949 4278190335
0.06716004 0.088679396 0.017260108 4278190335
0.06716004 0.093283266 0.020529762 4278190335
0.06716004 0.097887136 0.026035046 4278190335
0.06716004 0.10249101 0.028029971 4278190335
0.06716004 0.10709488 0.029668853 4278190335
0.06716004 0.11169875 0.030460358 4278190335
0.06716004 0.11630262 0.03010135 4278190335
0.06716004 0.12090649 0.029708151 4278190335
0.06716004 0.12551036 0.028901529 4278190335
0.06716004 0.13011424 0.026911698 4278190335
0.06716004 0.13471811 0.024352774 4278190335
0.06716004 0.13932198 0.021387262 4278190335
0.06716004 0.14392585 0.016142102 4278190335
0.06716004 0.14852972 0.010902455 4278190335
0.07176391 -0.086267717 0.01296147 4278190335
0.07176391 -0.081663847 0.019176297 4278190335
0.07176391 -0.077059977 0.025720863 4278190335
0.07176391 -0.072456107 0.028244881 4278190335
0.07176391 -0.067852236 0.029292936 4278190335
0.07176391 -0.063248366 0.02860672 4278190335
0.07176391 -0.058644492 0.027420344 4278190335
0.07176391 -0.054040618 0.026026797 4278190335
0.07176391 -0.049436748 0.025045255 4278190335
0.07176391 -0.044832878 0.023604598 4278190335
0.07176391 -0.040229004 0.011685712 4278190335
0.07176391 0.001205837 0.01193534 4278190335
0.07176391 0.0058097085 0.015542962 4278190335
0.07176391 0.01041358 0.016187198 4278190335
0.07176391 0.015017451 0.016708406 4278190335
0.07176391 0.019621322 0.017295528 4278190335
0.07176391 0.024225194 0.018681696 4278190335
0.07176391 0.028829066 0.018823281 4278190335
0.07176391 0.033432938 0.018014913 4278190335
0.07176391 0.038036808 0.01485501 4278190335
0.07176391 0.042640679 0.010524114 4278190335
0.07176391 0.079471648 0.010026071 4278190335
0.07176391 0.084075525 0.015000061 4278190335
0.07176391 0.088679396 0.018056145 4278190335
0.07176391 0.093283266 0.022007676 4278190335
0.07176391 0.097887136 0.028573351 4278190335
0.07176391 0.10249101 0.030538438 4278190335
0.07176391 0.10709488 0.031539075 4278190335
0.07176391 0.11169875 0.031491533 4278190335
0.07176391 0.11630262 0.030780064 4278190335
0.07176391 0.12090649 0.030242797 4278190335
0.07176391 0.12551036 0.029247189 4278190335
0.07176391 0.13011424 0.027603669 4278190335
0.07176391 0.13471811 0.025940754 4278190335
0.07176391 0.13932198 0.022524063 4278190335
0.07176391 0.14392585 0.01796185 4278190335
0.07176391 0.14852972 0.012309454 4278190335
0.076367781 -0.090871587 0.011905417 4278190335
0.076367781 -0.086267717 0.017355017 4278190335
0.076367781 -0.081663847 0.024717689 4278190335
0.076367781 -0.077059977 0.028531773 4278190335
0.076367781 -0.072456107 0.030610273 4278190335
0.076367781 -0.067852236 0.030648628 4278190335
0.076367781 -0.063248366 0.029256452 4278190335
0.076367781 -0.058644492 0.028142313 4278190335
0.076367781 -0.054040618 0.027268136 4278190335
0.076367781 -0.049436748 0.02666761 4278190335
0.076367781 -0.044832878 0.025208332 4278190335
0.076367781 -0.040229004 0.018754832 4278190335
0.076367781 -0.0080019059 0.010299413 4278190335
0.076367781 -0.0033980345 0.014126892 4278190335
0.076367781 0.001205837 0.018655412 4278190335
0.076367781 0.0058097085 0.020545812 4278190335
0.076367781 0.01041358 0.020370051 4278190335
0.076367781 0.015017451 0.020431453 4278190335
0.076367781 0.019621322 0.020963551 4278190335
0.076367781 0.024225194 0.020968037 4278190335
0.076367781 0.028829066 0.020667987 4278190335
0.076367781 0.033432938 0.020432355 4278190335
0.076367781 0.038036808 0.017478453 4278190335
0.076367781 0.042640679 0.012436037 4278190335
0.076367781 0.084075525 0.015023056 4278190335
0.076367781 0.088679396 0.017900791 4278190335
0.076367781 0.093283266 0.025284449 4278190335
0.076367781 0.097887136 0.029450445 4278190335
0.076367781 0.10249101 0.031026034 4278190335
0.076367781 0.10709488 0.031634703 4278190335
0.076367781 0.11169875 0.031560108 4278190335
0.076367781 0.11630262 0.030997891 4278190335
0.076367781 0.12090649 0.030427722 4278190335
0.076367781 0.12551036 0.029743457 4278190335
0.076367781 0.13011424 0.02890476 4278190335
0.076367781 0.13471811 0.027351305 4278190335
0.076367781 0.13932198 0.024728725 4278190335
0.076367781 0.14392585 0.020785993 4278190335
0.076367781 0.14852972 0.014205752 4278190335
0.080971651 -0.090871587 0.013813225 4278190335
0.080971651 -0.086267717 0.021878658 4278190335
0.080971651 -0.081663847 0.028679179 4278190335
0.080971651 -0.077059977 0.030825878 4278190335
0.080971651 -0.072456107 0.031532805 4278190335
0.080971651 -0.067852236 0.031295367 4278190335
0.080971651 -0.063248366 0.030427152 4278190335
0.080971651 -0.058644492 0.029697053 4278190335
0.080971651 -0.054040618 0.029697895 4278190335
0.080971651 -0.049436748 0.028560281 4278190335
0.080971651 -0.044832878 0.025846904 4278190335
0.080971651 -0.040229004 0.021171583 4278190335
0.080971651 -0.012605777 0.010921188 4278190335
0.080971651 -0.0080019059 0.018192185 4278190335
0.080971651 -0.0033980345 0.020275 4278190335
0.080971651 0.001205837 0.021795971 4278190335
0.080971651 0.0058097085 0.023134518 4278190335
0.080971651 0.01041358 0.023764119 4278190335
0.080971651 0.015017451 0.023798868 4278190335
0.080971651 0.019621322 0.02362133 4278190335
0.080971651 0.024225194 0.02439395 4278190335
0.080971651 0.028829066 0.0240728 4278190335
0.080971651 0.033432938 0.022770831 4278190335
0.080971651 0.038036808 0.021095185 4278190335
0.080971651 0.042640679 0.016219897 4278190335
0.080971651 0.047244553 0.010247985 4278190335
0.080971651 0.084075525 0.014831809 4278190335
0.080971651 0.088679396 0.020117102 4278190335
0.080971651 0.093283266 0.027646469 4278190335
0.080971651 0.097887136 0.030800497 4278190335
0.080971651 0.10249101 0.032250144 4278190335
0.080971651 0.10709488 0.032304104 4278190335
0.080971651 0.11169875 0.032190394 4278190335
0.080971651 0.11630262 0.031625256 4278190335
0.080971651 0.12090649 0.031160587 4278190335
0.080971651 0.12551036 0.030716436 4278190335
0.080971651 0.13011424 0.030215926 4278190335
0.080971651 0.13471811 0.029156156 4278190335
0.080971651 0.13932198 0.027384859 4278190335
0.080971651 0.14392585 0.02307217 4278190335
0.080971651 0.14852972 0.016349401 4278190335
0.085575521 -0.095475465 0.012050848 4278190335
0.085575521 -0.090871587 0.017898653 4278190335
0.085575521 -0.086267717 0.026970187 4278190335
0.085575521 -0.081663847 0.031144449 4278190335
0.085575521 -0.077059977 0.032198999 4278190335
0.085575521 -0.072456107 0.0321966 4278190335
0.085575521 -0.067852236 0.032730836 4278190335
0.085575521 -0.063248366 0.03392699 4278190335
0.085575521 -0.058644492 0.033626936 4278190335
0.085575521 -0.054040618 0.032958634 4278190335
0.085575521 -0.049436748 0.030140486 4278190335
0.085575521 -0.044832878 0.027403977 4278190335
0.085575521 -0.040229004 0.024549358 4278190335
0.085575521 -0.017209649 0.010676301 4278190335
0.085575521 -0.012605777 0.021344116 4278190335
0.085575521 -0.0080019059 0.02283553 4278190335
0.085575521 -0.0033980345 0.024033684 4278190335
0.085575521 0.001205837 0.024534063 4278190335
0.085575521 0.0058097085 0.025488626 4278190335
0.085575521 0.01041358 0.025372718 4278190335
0.085575521 0.015017451 0.025761221 4278190335
0.085575521 0.019621322 0.025683651 4278190335
0.085575521 0.024225194 0.025606086 4278190335
0.085575521 0.028829066 0.025314739 4278190335
0.085575521 0.033432938 0.024175551 4278190335
0.085575521 0.038036808 0.022835156 4278190335
0.085575521 0.042640679 0.020433947 4278190335
0.085575521 0.047244553 0.013971686 4278190335
0.085575521 0.084075525 0.016988277 4278190335
0.085575521 0.088679396 0.021632524 4278190335
0.085575521 0.093283266 0.025430301 4278190335
0.085575521 0.097887136 0.029228076 4278190335
0.085575521 0.10249101 0.033339389 4278190335
0.085575521 0.10709488 0.034064785 4278190335
0.085575521 0.11169875 0.033887841 4278190335
0.085575521 0.11630262 0.034210216 4278190335
0.085575521 0.12090649 0.033910181 4278190335
0.085575521 0.12551036 0.033303127 4278190335
0.085575521 0.13011424 0.031717937 4278190335
0.085575521 0.13471811 0.031062521 4278190335
0.085575521 0.13932198 0.027190747 4278190335
0.085575521 0.14392585 0.022879165 4278190335
0.085575521 0.14852972 0.017111002 4278190335
0.085575521 0.15313359 0.010877207 4278190335
0.090179399 -0.095475465 0.017024521 4278190335
0.090179399 -0.090871587 0.026288673 4278190335
0.090179399 -0.086267717 0.031362437 4278190335
0.090179399 -0.081663847 0.0329508 4278190335
0.090179399 -0.077059977 0.033646397 4278190335
0.090179399 -0.072456107 0.0335734 4278190335
0.090179399 -0.067852236 0.034674183 4278190335
0.090179399 -0.063248366 0.036926903 4278190335
0.090179399 -0.058644492 0.036888976 4278190335
0.090179399 -0.054040618 0.034737464 4278190335
0.090179399 -0.049436748 0.032069135 4278190335
0.090179399 -0.044832878 0.028979648 4278190335
0.090179399 -0.040229004 0.025223533 4278190335
0.090179399 -0.035625134 0.010660532 4278190335
0.090179399 -0.021813519 0.014754835 4278190335
0.090179399 -0.017209649 0.021832198 4278190335
0.090179399 -0.012605777 0.026562478 4278190335
0.090179399 -0.0080019059 0.027141081 4278190335
0.090179399 -0.0033980345 0.027724829 4278190335
0.090179399 0.001205837 0.028860727 4278190335
0.090179399 0.0058097085 0.028257215 4278190335
0.090179399 0.01041358 0.02729705 4278190335
0.090179399 0.015017451 0.027118012 4278190335
0.090179399 0.019621322 0.026567811 4278190335
0.090179399 0.024225194 0.026262822 4278190335
0.090179399 0.028829066 0.025559589 4278190335
0.090179399 0.033432938 0.024993308 4278190335
0.090179399 0.038036808 0.024546584 4278190335
0.090179399 0.042640679 0.022933859 4278190335
0.090179399 0.047244553 0.019359475 4278190335
0.090179399 0.051848423 0.010313158 4278190335
0.090179399 0.084075525 0.01058244 4278190335
0.090179399 0.088679396 0.014387188 4278190335
0.090179399 0.093283266 0.018257137 4278190335
0.090179399 0.097887136 0.024030466 4278190335
0.090179399 0.10249101 0.029010018 4278190335
0.090179399 0.10709488 0.031394072 4278190335
0.090179399 0.11169875 0.031596966 4278190335
0.090179399 0.11630262 0.031405929 4278190335
0.090179399 0.12090649 0.031676713 4278190335
0.090179399 0.12551036 0.030639473 4278190335
0.090179399 0.13011424 0.029549712 4278190335
0.090179399 0.13471811 0.027703859 4278190335
0.090179399 0.13932198 0.024040451 4278190335
0.090179399 0.14392585 0.020329719 4278190335
0.090179399 0.14852972 0.015806012 4278190335
0.090179399 0.15313359 0.010160382 4278190335
0.094783269 -0.10468321 0.010236165 4278190335
0.094783269 -0.10007934 0.017312618 4278190335
0.094783269 -0.095475465 0.023600865 4278190335
0.094783269 -0.090871587 0.03123231 4278190335
0.094783269 -0.086267717 0.034400322 4278190335
0.094783269 -0.081663847 0.035234511 4278190335
0.094783269 -0.077059977 0.035115637 4278190335
0.094783269 -0.072456107 0.035207503 4278190335
0.094783269 -0.067852236 0.036369208 4278190335
0.094783269 -0.063248366 0.036779828 4278190335
0.094783269 -0.058644492 0.036461893 4278190335
0.094783269 -0.054040618 0.035293326 4278190335
0.094783269 -0.049436748 0.033096086 4278190335
0.094783269 -0.044832878 0.030161442 4278190335
0.094783269 -0.040229004 0.02515625 4278190335
0.094783269 -0.035625134 0.016642047 4278190335
0.094783269 -0.031021263 0.01224788 4278190335
0.094783269 -0.026417391 0.015746919 4278190335
0.094783269 -0.021813519 0.01939087 4278190335
0.094783269 -0.017209649 0.026723644 4278190335
0.094783269 -0.012605777 0.031718593 4278190335
0.094783269 -0.0080019059 0.032025535 4278190335
0.094783269 -0.0033980345 0.032208789 4278190335
0.094783269 0.001205837 0.03363866 4278190335
0.094783269 0.0058097085 0.032189634 4278190335
0.094783269 0.01041358 0.030576555 4278190335
0.094783269 0.015017451 0.028686628 4278190335
