# .PCD v0.7 - Point Cloud Data file format
VERSION 0.7
FIELDS x y z rgb
SIZE 4 4 4 4
TYPE F F F U
COUNT 1 1 1 1
WIDTH 1054
HEIGHT 1
VIEWPOINT 0 0 0 1 0 0 0
POINTS 1054
DATA ascii
0.22035292 -0.89318919 0.063273102 4294901760
0.22960725 -0.89987755 0.5431633 4294901760
0.23228636 -0.88429165 0.093330115 4292280064
0.24399522 -0.87498331 0.10339263 4292280064
0.25280049 -0.88084984 0.54329383 4294901760
0.26439717 -0.87133598 0.5433591 4294901760
0.28601113 -0.83917475 0.058644265 4294901760
0.30305272 -0.83962321 0.5435766 4294901760
0.29833764 -0.83099604 0.12369177 4294951168
0.3099342 -0.82148218 0.12375697 4294941184
0.31834644 -0.82662988 0.52866769 4294951168
0.32074505 -0.81053042 0.053841382 4294901760
0.33358413 -0.81353402 0.50876021 4294967040
0.33733743 -0.8101573 0.49878466 4294967040
0.34113926 -0.79662538 0.14892414 4294941184
0.34937555 -0.79120708 0.19395527 4294941184
0.35554236 -0.79224682 0.39892083 4294901760
0.35464436 -0.7906034 0.31894279 4294951168
0.35441977 -0.7901926 0.29894829 4294941184
0.35397071 -0.78937101 0.25895917 4294941184
0.35380238 -0.78906298 0.24396332 4294941184
0.36002547 -0.79020524 0.45392752 4294951168
0.35985702 -0.78989697 0.43893164 4294941184
0.3590712 -0.7884593 0.36895084 4294941184
0.35553497 -0.78198886 0.054037124 4294901760
0.37872833 -0.76296091 0.054167658 4294901760
0.4058432 -0.74086475 0.059318513 4294901760
0.41743976 -0.7313509 0.05938378 4294901760
0.46769196 -0.69012427 0.059666544 4294901760
0.47928852 -0.68061042 0.059731752 4294901760
0.50634748 -0.65841126 0.059884042 4294901760
0.55654353 -0.61708188 0.055168182 4294901760
0.60293013 -0.57902646 0.055429131 4294901760
0.62225789 -0.56316996 0.055537909 4294901760
0.63385445 -0.5536561 0.055603176 4294901760
0.64545125 -0.54414225 0.055668443 4294901760
0.66483492 -0.52838874 0.060775787 4294901760
0.69575924 -0.50301838 0.060949773 4294901760
0.72662777 -0.47754526 0.056125194 4294901760
0.73822433 -0.46803141 0.056190401 4294901760
0.78466684 -0.43007874 0.061450034 4294901760
0.85811228 -0.36982417 0.061863333 4294901760
0.87351865 -0.35703635 0.056951672 4294901760
0.92377084 -0.31580949 0.057234436 4294901760
0.93536729 -0.30629563 0.057299703 4294901760
0.95469517 -0.29043913 0.057408482 4294901760
0.97788852 -0.27141142 0.057538956 4294901760
1.0513339 -0.21115708 0.057952255 4294901760
1.0667961 -0.19847178 0.058039218 4294901760
1.0783927 -0.18895817 0.058104485 4294901760
1.1440508 -0.13494349 0.053475529 4294901760
1.167244 -0.11591578 0.053606063 4294901760
1.2136307 -0.077860355 0.053867072 4294901760
1.244555 -0.052489996 0.054041058 4294901760
1.2561517 -0.042976379 0.054106325 4294901760
1.2948072 -0.011263371 0.054323822 4294901760
1.3605778 0.042545795 0.059692293 4294901760
1.3721182 0.052162647 0.054758817 4294901760
1.3837147 0.061676264 0.054824084 4294901760
1.3953114 0.071190357 0.054889351 4294901760
1.4262359 0.096560478 0.055063337 4294901760
1.4804096 0.14085579 0.060366541 4294901760
-0.54466772 -1.5134524 0.029111475 4294941184
-0.51721597 -1.4919723 0.064254135 4294901760
-0.51760888 -1.4912534 0.029263705 4294941184
-0.50556326 -1.4825611 0.069318026 4294901760
-0.49430332 -1.4724311 0.039391488 4294901760
-0.48236993 -1.4635334 0.06944856 4294901760
-0.48265061 -1.4630198 0.044455379 4294941184
-0.46690771 -1.4508482 0.069535524 4294901760
-0.45928887 -1.4443003 0.059581786 4294901760
-0.43228617 -1.4219985 0.054735452 4294901760
-0.40892449 -1.4032789 0.069861799 4294901760
-0.36640349 -1.3683947 0.070101053 4294901760
-0.35094127 -1.3557097 0.070188075 4294901760
-0.33553526 -1.3429219 0.065276414 4294901760
-0.32393864 -1.333408 0.065341681 4294901760
-0.29301414 -1.3080376 0.065515667 4294901760
-0.2195687 -1.2477832 0.065928966 4294901760
-0.20410654 -1.235098 0.066015929 4294901760
-0.19637546 -1.2287555 0.06605944 4294901760
-0.18477884 -1.2192416 0.066124707 4294901760
-0.17335054 -1.2094196 0.051194102 4294901760
-0.092342347 -1.1425145 0.036654919 4294901760
-0.073070854 -1.1265553 0.031765014 4294901760
-0.049933761 -1.107425 0.026896924 4294941184
-0.042202562 -1.1010823 0.026940435 4294901760
-0.028192252 -1.0959848 0.24194674 4294941184
-0.028697461 -1.0950605 0.19695911 4294901760
-0.028865904 -1.0947523 0.18196318 4294941184
-0.029034346 -1.0944443 0.1669673 4294901760
-0.024214476 -1.0930189 0.25196576 4294941184
-0.02533707 -1.0909649 0.15199319 4294901760
-0.025505513 -1.0906568 0.13699731 4294941184
-0.021808237 -1.0871773 0.1220232 4294941184
-0.019009203 -1.0820546 0.02707091 4294901760
-0.014189452 -1.0806293 0.11206934 4294901760
-0.010436147 -1.0772526 0.10209385 4294901760
-0.0037640035 -1.0792165 0.35204709 4294941184
-0.0073564947 -1.0726435 0.032134801 4294901760
-0.0028733909 -1.0706019 0.087141484 4294941184
0.0085547268 -1.06078 0.072210878 4294951168
0.0083862841 -1.060472 0.057215005 4294941184
0.028170735 -1.0556951 0.44219646 4294967040
0.04374519 -1.0432153 0.45228073 4294941184
0.051588565 -1.0370781 0.46232149 4294941184
0.059375793 -1.0308383 0.46736363 4294941184
0.067387491 -1.0250092 0.49240029 4294967040
0.071421415 -1.022146 0.50741792 4294967040
0.10268274 -0.9973917 0.53758371 4294901760
0.19551197 -0.92138362 0.54310435 4294901760
0.21097425 -0.90869856 0.54319131 4294901760
0.21751884 -0.88994145 0.093379885 4292280064
0.23258808 -0.87653732 0.058476537 4294901760
0.24805024 -0.86385202 0.058563501 4294901760
0.2524772 -0.86170793 0.1085715 4292280064
0.26418617 -0.85239935 0.11863407 4294941184
0.26351252 -0.85116696 0.058650523 4294901760
0.27124372 -0.84482431 0.058694035 4294901760
0.28061011 -0.85171795 0.54858148 4294901760
0.2921508 -0.84210157 0.54364812 4294901760
0.28743571 -0.8334744 0.12376323 4294941184
0.29443699 -0.8257966 0.058824509 4294901760
0.30211204 -0.81935143 0.053869396 4294901760
0.33786362 -0.80281353 0.48392555 4294951168
0.33298022 -0.79387832 0.049044698 4294901760
0.3407113 -0.78753591 0.04908821 4294901760
0.35253996 -0.78869057 0.41403174 4294941184
0.35220319 -0.78807449 0.38403994 4294901760
0.35561973 -0.78408146 0.34407264 4294951168
0.39488524 -0.74324036 0.054391414 4294901760
0.42199999 -0.7211442 0.059542269 4294901760
0.49544543 -0.66088963 0.059955567 4294901760
0.52636987 -0.6355195 0.060129553 4294901760
0.56496924 -0.60370398 0.055348426 4294901760
0.5804314 -0.59101868 0.055435449 4294901760
0.66939515 -0.5181818 0.060934335 4294901760
0.74665004 -0.45465326 0.056370705 4294901760
0.75438112 -0.44831085 0.056414217 4294901760
0.8084988 -0.40391278 0.056718737 4294901760
0.8471542 -0.37220001 0.056936234 4294901760
0.88967556 -0.33731556 0.057175487 4294901760
0.89740652 -0.33097291 0.057218999 4294901760
0.98244852 -0.26120472 0.057697505 4294901760
0.99017972 -0.25486231 0.057741016 4294901760
1.0017765 -0.24534822 0.057806283 4294901760
1.0365663 -0.21680689 0.058002025 4294901760
1.1022243 -0.16279221 0.053373069 4294901760
1.1447453 -0.12790799 0.053612322 4294901760
1.1756697 -0.10253787 0.053786367 4294901760
1.1911321 -0.089852571 0.05387333 4294901760
1.2027287 -0.080338717 0.053938597 4294901760
1.2645774 -0.029598236 0.054286629 4294901760
1.2800395 -0.016912937 0.054373592 4294901760
1.3070984 0.0052859783 0.054525882 4294901760
1.330348 0.02421093 0.059655041 4294901760
1.3496194 0.040170193 0.054765135 4294901760
1.4153337 0.094082117 0.055134863 4294901760
1.4462581 0.11945224 0.055308908 4294901760
1.4617202 0.13213754 0.055395871 4294901760
1.4849701 0.15106249 0.06052509 4294901760
1.4965103 0.1606791 0.055591673 4294901760
-0.53624195 -1.5000743 0.029291719 4294941184
-0.50526148 -1.4748067 0.034464329 4294941184
-0.49713743 -1.469183 0.069498271 4294901760
-0.44705367 -1.4276482 0.054785162 4294901760
-0.42766982 -1.4118944 0.059892505 4294901760
-0.4005549 -1.3897982 0.06504342 4294901760
-0.38509268 -1.377113 0.065130383 4294901760
-0.38150775 -1.3734282 0.040158957 4294951168
-0.37730545 -1.3708731 0.070172518 4294901760
-0.31164724 -1.3168585 0.065543681 4294901760
-0.2769134 -1.2882143 0.060740799 4294901760
-0.2652607 -1.2788031 0.06580469 4294901760
-0.24206738 -1.2597754 0.065935165 4294901760
-0.14946263 -1.1833564 0.051461309 4294901760
-0.13400041 -1.1706713 0.051548332 4294901760
-0.11859427 -1.1578834 0.046636611 4294901760
-0.064645037 -1.1131773 0.031945258 4294901760
-0.031643853 -1.0916071 0.2170686 4294901760
-0.023407444 -1.0861887 0.2620998 4294941184
-0.024586186 -1.0840319 0.15712854 4294941184
-0.019429564 -1.0832229 0.27211881 4294941184
-0.020889044 -1.0805526 0.14215443 4294941184
-0.015395761 -1.0803597 0.28713644 4294941184
-0.0026763678 -1.0729001 0.38717425 4294951168
-0.0059320927 -1.0669432 0.09725371 4294941184
-0.0027401447 -1.0625396 0.037291914 4294901760
0.0016868114 -1.0603952 0.087299973 4294941184
0.009256959 -1.0640023 0.41723132 4294967040
0.0050470829 -1.0562997 0.04233405 4294901760
0.02107811 -1.0548992 0.43729109 4294967040
0.076093912 -1.0121446 0.51757365 4294967040
0.08388114 -1.0059047 0.52261579 4294967040
0.091668487 -0.99966478 0.52765793 4294941184
0.13822341 -0.9619174 0.54291481 4294901760
0.14601052 -0.95567751 0.54795694 4294901760
0.17693496 -0.93030715 0.54813099 4294901760
0.20263922 -0.8953855 0.083432347 4292280064
0.21782064 -0.88218689 0.058526248 4294901760
0.22213519 -0.87983704 0.098536998 4292280064
0.23094049 -0.8857038 0.5384382 4294901760
0.22992244 -0.87359738 0.10357913 4292280064
0.23770967 -0.86735749 0.10862127 4294967040
0.25413373 -0.86667609 0.53856874 4294901760
0.26578656 -0.857265 0.54363257 4294901760
0.27653375 -0.83595276 0.1238347 4294941184
0.29278928 -0.83496332 0.53878623 4294901760
0.29586142 -0.82009625 0.12394342 4294941184
0.30432981 -0.82534671 0.53385282 4294941184
0.31570178 -0.81542206 0.51392359 4294967040
0.31053776 -0.80597329 0.054049641 4294901760
0.31524533 -0.80434251 0.12905082 4294901760
0.32695419 -0.79503417 0.13911334 4294941184
0.33490986 -0.78910232 0.15915135 4294941184
0.34231156 -0.79240131 0.47408676 4294951168
0.33894366 -0.78623915 0.17416897 4294941184
0.34432489 -0.78584075 0.30915374 4294941184
0.3441003 -0.78542995 0.28915924 4294901760
0.34320217 -0.78378677 0.20918116 4294941184
0.34292156 -0.78327322 0.18418798 4294901760
0.3487516 -0.78369665 0.35916179 4294941184
0.34835869 -0.78297782 0.32417136 4294951168
0.34779745 -0.78195071 0.27418512 4294901760
0.34734839 -0.78112912 0.23419605 4294941184
0.34717995 -0.78082085 0.21920015 4294941184
0.35340315 -0.78196311 0.42916435 4294941184
0.35692436 -0.76791787 0.05431065 4294901760
0.36465544 -0.76157522 0.054354161 4294901760
0.38011771 -0.74888992 0.054441124 4294901760
0.43042582 -0.70776606 0.059722513 4294901760
0.45356315 -0.68863559 0.054854423 4294901760
0.48062187 -0.66643667 0.055006653 4294901760
0.51160222 -0.64116907 0.060179263 4294901760
0.5309301 -0.62531257 0.060288042 4294901760
0.58885735 -0.57764053 0.055615693 4294901760
0.64689666 -0.53017402 0.060940534 4294901760
0.67782098 -0.50480366 0.061114579 4294901760
0.70101422 -0.48577595 0.061245054 4294901760
0.71255475 -0.47615933 0.056311697 4294901760
0.75894135 -0.43810391 0.056572706 4294901760
0.77059394 -0.42869282 0.061636597 4294901760
0.78986567 -0.41273355 0.056746691 4294901760
0.82079011 -0.38736343 0.056920677 4294901760
0.83238679 -0.37784934 0.056985945 4294901760
0.94062215 -0.2890532 0.057594985 4294901760
0.96000582 -0.27329969 0.062702328 4294901760
0.97154671 -0.26368308 0.057768971 4294901760
1.0063365 -0.23514152 0.057964712 4294901760
1.0179331 -0.22562766 0.058029979 4294901760
1.0565324 -0.19381213 0.053248793 4294901760
1.1106501 -0.14941406 0.053553313 4294901760
1.1222467 -0.13990021 0.05361858 4294901760
1.2150199 -0.063789368 0.054140598 4294901760
1.2304821 -0.051104069 0.054227561 4294901760
1.2498097 -0.035247803 0.054336339 4294901760
1.2923307 -0.00036358833 0.054575592 4294901760
1.3155241 0.018664122 0.054706067 4294901760
1.3851042 0.07574749 0.05509761 4294901760
1.4005663 0.08843255 0.055184633 4294901760
1.4314907 0.11380291 0.055358618 4294901760
1.5088015 0.17722845 0.055793613 4294901760
-0.53162557 -1.4899701 0.034448892 4294901760
-0.52742326 -1.4874151 0.064462453 4294901760
-0.51577049 -1.478004 0.069526285 4294901760
-0.51616341 -1.477285 0.034535855 4294941184
-0.50815165 -1.4714559 0.059572548 4294901760
-0.49672341 -1.461634 0.044641882 4294941184
-0.4925772 -1.4589761 0.069656819 4294901760
-0.48098052 -1.4494623 0.069722086 4294901760
-0.4229973 -1.401893 0.070048302 4294901760
-0.36501408 -1.3543237 0.070374578 4294901760
-0.33806753 -1.3319194 0.06052956 4294901760
-0.32260525 -1.3192341 0.060616583 4294901760
-0.307087 -1.3066517 0.06570223 4294901760
-0.29549032 -1.2971379 0.065767437 4294901760
-0.23364162 -1.2463974 0.066115469 4294901760
-0.21817935 -1.2337121 0.066202492 4294901760
-0.18355781 -1.2048625 0.05140236 4294901760
-0.17196119 -1.1953486 0.051467627 4294901760
-0.12551844 -1.1573958 0.05672726 4294901760
-0.11806798 -1.1505398 0.031777531 4294941184
-0.087087512 -1.1252722 0.036950201 4294901760
-0.07554698 -1.1156555 0.032016784 4294901760
-0.034590125 -1.0881536 0.23717813 4294941184
-0.037003875 -1.0837374 0.022237033 4294951168
-0.031061411 -1.0843661 0.20720813 4294941184
-0.027307987 -1.0809894 0.19723263 4294901760
-0.027420282 -1.080784 0.18723533 4294941184
-0.027588725 -1.0804758 0.17223945 4294901760
-0.018398166 -1.0768037 0.30224735 4294941184
-0.020418882 -1.0731063 0.12229666 4294941184
-0.021485448 -1.0711548 0.02732268 4294901760
-0.0099935532 -1.0716934 0.36227441 4294941184
-0.010274172 -1.0711801 0.33728123 4294941184
-0.010442615 -1.0708718 0.32228535 4294941184
-0.012856245 -1.0664556 0.10734424 4294941184
-0.0018695593 -1.0660698 0.39730829 4294951168
0.010064006 -1.0571723 0.4273653 4294967040
0.0062470436 -1.0501883 0.087458521 4294951168
0.0099440813 -1.0467091 0.072484404 4294951168
0.0097756386 -1.0464008 0.057488531 4294941184
0.018019557 -1.0512404 0.44740334 4294951168
0.025806785 -1.0450006 0.45244548 4294951168
0.041437387 -1.0326235 0.46752837 4294951168
0.053202391 -1.0234179 0.48258951 4294967040
0.061158061 -1.0174861 0.50262749 4294967040
0.16216743 -0.93595695 0.5481807 4294901760
0.19690132 -0.90731263 0.54337782 4294901760
0.19156873 -0.89755583 0.068508059 4294951168
0.20344603 -0.88855553 0.093566388 4292280064
0.20310926 -0.88793921 0.063574642 4294941184
0.22003853 -0.88818216 0.53850973 4294901760
0.23011199 -0.86563754 0.058728307 4294901760
0.2462478 -0.85418487 0.11879882 4294941184
0.24557415 -0.85295248 0.058815271 4294901760
0.25717083 -0.84343863 0.058880538 4294901760
0.3087216 -0.81483173 0.51901543 4294967040
0.3043434 -0.80682087 0.12912235 4294901760
0.31504196 -0.79566383 0.049209505 4294901760
0.32390314 -0.80163312 0.49410933 4294967040
0.33146578 -0.79498243 0.47915691 4294951168
0.32776111 -0.78820395 0.14924738 4294901760
0.34064883 -0.78105235 0.26428109 4294941184
0.34048039 -0.78074431 0.24928521 4294951168
0.34664732 -0.78178382 0.45425075 4294951168
0.34647888 -0.78147578 0.43925488 4294951168
0.34614211 -0.78085947 0.4092631 4294941184
0.34210068 -0.77346492 0.049361736 4294901760
0.39627463 -0.72916937 0.05466494 4294901760
0.40400571 -0.72282696 0.054708451 4294901760
0.46198887 -0.67525768 0.055034667 4294901760
0.48518211 -0.65622997 0.055165201 4294901760
0.49677891 -0.64671588 0.055230469 4294901760
0.54703099 -0.60548925 0.055513233 4294901760
0.59341758 -0.56743383 0.055774182 4294901760
0.60887975 -0.55474854 0.055861205 4294901760
0.6359387 -0.53254962 0.056013495 4294901760
0.65532237 -0.51679611 0.061120838 4294901760
0.68624669 -0.49142575 0.061294824 4294901760
0.7209807 -0.46278143 0.056492001 4294901760
0.73644274 -0.45009613 0.056578964 4294901760
0.74417382 -0.44375372 0.056622475 4294901760
0.86400598 -0.34544373 0.057296723 4294901760
0.9026615 -0.31373072 0.05751428 4294901760
0.91425818 -0.30421686 0.057579488 4294901760
0.92585462 -0.29470301 0.057644755 4294901760
0.94910401 -0.27577806 0.062773913 4294901760
1.0263591 -0.21224952 0.058210284 4294901760
1.034034 -0.20580435 0.053255111 4294901760
1.0456305 -0.19629049 0.053320318 4294901760
1.0688801 -0.17736554 0.058449537 4294901760
1.0843425 -0.16468024 0.058536559 4294901760
1.1345382 -0.12335086 0.05382058 4294901760
1.204118 -0.066267729 0.054212123 4294901760
1.2814291 -0.0028419495 0.054647118 4294901760
1.3278155 0.03521347 0.054908127 4294901760
1.3355467 0.04155612 0.054951638 4294901760
1.3548744 0.057412624 0.055060416 4294901760
1.3703365 0.070097685 0.05514738 4294901760
1.3896644 0.085954189 0.055256158 4294901760
1.4128578 0.1049819 0.055386633 4294901760
1.4476476 0.13352346 0.055582374 4294901760
-0.55804592 -1.5050309 0.029434711 4294941184
-0.51154703 -1.4671808 0.039692968 4294941184
-0.46107036 -1.426365 0.059970289 4294901760
-0.44560814 -1.4136798 0.060057312 4294901760
-0.43395543 -1.4042686 0.065121144 4294901760
-0.40303099 -1.3788984 0.06529519 4294901760
-0.39552444 -1.3721449 0.045344085 4294941184
-0.37597221 -1.3566993 0.06544742 4294901760
-0.3527227 -1.3377743 0.070576578 4294901760
-0.20975359 -1.2203339 0.066382676 4294901760
-0.19429143 -1.2076489 0.066469699 4294901760
-0.16347928 -1.1820732 0.056646436 4294901760
-0.15188266 -1.1725594 0.056711704 4294901760
-0.12101431 -1.1470863 0.051887065 4294901760
-0.10185494 -1.1309217 0.036999911 4294901760
-0.070986763 -1.1054487 0.032175273 4294901760
-0.029861465 -1.0782549 0.25233251 4294901760
-0.02297236 -1.0703719 0.17739657 4294941184
-0.023140684 -1.0700636 0.16240069 4294941184
-0.023309126 -1.0697556 0.14740482 4294941184
-0.019555807 -1.0663788 0.13742927 4294941184
-0.013332725 -1.0675211 0.34739351 4294941184
-0.016925216 -1.0609481 0.027481169 4294901760
-0.008961916 -1.0652742 0.39240295 4294951168
-0.0091303587 -1.064966 0.37740701 4294941184
-0.00095021725 -1.0594451 0.41743958 4294967040
0.0025148392 -1.0452971 0.037587196 4294901760
0.010870814 -1.0503421 0.43749934 4294967040
0.010358214 -1.03916 0.047627896 4294901760
0.030479312 -1.0349991 0.46260124 4294951168
0.054009318 -1.0165877 0.49272352 4294967040
0.069696069 -1.0043132 0.51280504 4294967040
0.093114018 -0.98569632 0.53293008 4294901760
0.10863233 -0.97311401 0.53801572 4294901760
0.12028503 -0.96370292 0.54307956 4294901760
0.12801611 -0.95736027 0.54312307 4294901760
0.16672766 -0.92575002 0.54833919 4294901760
0.17832434 -0.91623616 0.54840446 4294901760
0.18862247 -0.89410233 0.088617533 4292280064
0.20913661 -0.89066052 0.53858119 4294901760
0.20811856 -0.87855411 0.10372213 4294967040
0.22369301 -0.86607432 0.1138064 4294941184
0.2400609 -0.86529016 0.53875518 4294901760
0.25552306 -0.8526051 0.5388422 4294901760
0.26711985 -0.84309125 0.53890747 4294901760
0.27485093 -0.8367486 0.53895098 4294901760
0.270192 -0.82822418 0.12406471 4294941184
0.2694622 -0.82688904 0.059082538 4294901760
0.29020077 -0.82385802 0.52904069 4294951168
0.28873378 -0.81092978 0.054192632 4294901760
0.29338521 -0.80919647 0.12419519 4294941184
0.29646486 -0.80458736 0.054236144 4294901760
0.31311339 -0.80431676 0.50417805 4294967040
0.32066852 -0.78740835 0.14434198 4294941184
0.32346755 -0.78228569 0.04938969 4294901760
0.33288258 -0.77902412 0.19939217 4294941184
0.33882505 -0.77965283 0.38436317 4294901760
0.33809537 -0.77831769 0.319381 4294951168
0.33792692 -0.77800965 0.30438513 4294941184
0.33764631 -0.7774961 0.279392 4294901760
0.33708495 -0.77646899 0.22940566 4294951168
0.34308344 -0.7772007 0.41937536 4294941184
0.34229761 -0.7757628 0.34939456 4294941184
0.36217922 -0.75067544 0.054605931 4294901760
0.3699103 -0.74433279 0.054649383 4294901760
0.4162969 -0.70627737 0.054910392 4294901760
0.43175918 -0.69359231 0.054997414 4294901760
0.43949026 -0.68724966 0.055040926 4294901760
0.50526041 -0.63344073 0.060409278 4294901760
0.52072281 -0.62075543 0.0604963 4294901760
0.52845389 -0.61441278 0.060539812 4294901760
0.5477255 -0.59845376 0.055649906 4294901760
0.56318766 -0.58576846 0.055736929 4294901760
0.57864982 -0.5730834 0.055823952 4294901760
0.61730546 -0.54137039 0.056041449 4294901760
0.66374809 -0.50341773 0.061301082 4294901760
0.69853789 -0.4748764 0.061496824 4294901760
0.77198333 -0.41462183 0.061910063 4294901760
0.79512054 -0.39549136 0.057041973 4294901760
0.80285162 -0.38914871 0.057085484 4294901760
0.8221795 -0.37329221 0.057194203 4294901760
0.83377618 -0.36377835 0.05725947 4294901760
0.84150726 -0.3574357 0.057302982 4294901760
0.8762973 -0.32889414 0.057498723 4294901760
0.93428046 -0.28132486 0.057824999 4294901760
0.98066717 -0.24326944 0.058086008 4294901760
0.99226385 -0.23375559 0.058151275 4294901760
1.007726 -0.22107029 0.058238238 4294901760
1.0579216 -0.17974114 0.053522319 4294901760
1.1081738 -0.13851428 0.053805083 4294901760
1.1197705 -0.12900043 0.05387035 4294901760
1.1468294 -0.10680151 0.05402258 4294901760
1.166157 -0.090945005 0.054131359 4294901760
1.1777539 -0.08143115 0.054196566 4294901760
1.1893504 -0.071917295 0.054261833 4294901760
1.2241404 -0.043375731 0.054457575 4294901760
1.2357368 -0.033861876 0.054522842 4294901760
1.251199 -0.021176815 0.054609865 4294901760
1.3130481 0.029564142 0.054957837 4294901760
1.3439724 0.054934263 0.055131882 4294901760
1.4019556 0.10250378 0.055458099 4294901760
1.4174178 0.11518884 0.055545121 4294901760
1.4522076 0.1437304 0.055740863 4294901760
1.4638042 0.15324426 0.05580613 4294901760
1.4793229 0.16582656 0.060891837 4294901760
1.4947288 0.17861462 0.055980116 4294901760
-0.57667899 -1.5138519 0.029462665 4294941184
-0.5456984 -1.4885843 0.034635335 4294901760
-0.52603388 -1.4733441 0.06473586 4294901760
-0.51051557 -1.4607615 0.069821507 4294901760
-0.50687456 -1.4571794 0.049848765 4294941184
-0.42160794 -1.387822 0.070321769 4294901760
-0.39466134 -1.3654176 0.06047675 4294901760
-0.3870987 -1.3587669 0.045524329 4294941184
-0.33673432 -1.3177456 0.055804402 4294901760
-0.3212159 -1.305163 0.060890049 4294901760
-0.30575368 -1.292478 0.060977012 4294901760
-0.27477327 -1.2672104 0.066149682 4294901760
-0.25544551 -1.251354 0.066258401 4294901760
-0.23998335 -1.2386688 0.066345423 4294901760
-0.22065553 -1.2228123 0.066454202 4294901760
-0.19370893 -1.200408 0.056609184 4294901760
-0.11667863 -1.1364686 0.032050997 4294941184
-0.066426545 -1.0952419 0.032333761 4294901760
-0.051020533 -1.0824541 0.02742216 4294901760
-0.033256799 -1.0739799 0.23245303 4294941184
-0.028998286 -1.0715275 0.26746517 4294941184
-0.029559642 -1.0705004 0.21747889 4294901760
-0.031692654 -1.0665977 0.027530879 4294901760
-0.02502051 -1.0685616 0.27748418 4294941184
-0.025918633 -1.0669184 0.1975061 4294941184
-0.020818144 -1.0660064 0.30749774 4294941184
-0.020930439 -1.0658011 0.29750049 4294941184
-0.019029528 -1.0590353 0.12257019 4294901760
-0.012750298 -1.0602803 0.337533 4294941184
-0.011410743 -1.0524874 0.11261633 4294941184
-0.0076574385 -1.0491107 0.10264084 4294941184
-3.8653612e-05 -1.0425625 0.0926871 4294941184
0.0075802505 -1.0360146 0.082733363 4294951168
0.01122126 -1.0324326 0.062760562 4294941184
0.019521207 -1.0373747 0.45767412 4294951168
0.039073437 -1.0219293 0.47777739 4294951168
0.082099766 -0.9879694 0.52300429 4294951168
0.14030752 -0.94081092 0.54332507 4294901760
0.17766437 -0.89647794 0.083690375 4292280064
0.18136153 -0.89299846 0.068716258 4294951168
0.18556377 -0.89044333 0.098729759 4294967040
0.1944252 -0.89641285 0.54362959 4294901760
0.20063314 -0.87703919 0.063826352 4294901760
0.20830807 -0.87059402 0.058871239 4294901760
0.22142789 -0.87411118 0.53878319 4294901760
0.23211882 -0.85269618 0.11398664 4294951168
0.24304196 -0.8419497 0.054068357 4294901760
0.25997099 -0.84219289 0.52900344 4294967040
0.25542435 -0.83387375 0.12411448 4294941184
0.2739664 -0.81657934 0.054242343 4294901760
0.27861771 -0.81484604 0.12424502 4294941184
0.29464871 -0.81344581 0.51920193 4294967040
0.3096543 -0.7896812 0.13441625 4294901760
0.32550937 -0.77771497 0.16949365 4294941184
0.33274287 -0.78070593 0.46943319 4294951168
0.33072203 -0.77700853 0.28948247 4294901760
0.33044142 -0.77649498 0.26448935 4294941184
0.33621556 -0.77681565 0.43446451 4294941184
0.33593482 -0.7763021 0.40947136 4294941184
0.33548576 -0.77548051 0.36948234 4294941184
0.33509284 -0.77476168 0.33449191 4294951168
0.3340264 -0.77281022 0.23951794 4294941184
0.33194953 -0.76901007 0.054568619 4294901760
0.34741169 -0.75632501 0.054655641 4294901760
0.37833613 -0.73095465 0.054829627 4294901760
0.38993281 -0.72144079 0.054894894 4294901760
0.46724373 -0.65801501 0.055329889 4294901760
0.58321017 -0.56287646 0.055982441 4294901760
0.59867233 -0.5501914 0.056069404 4294901760
0.64511508 -0.51223874 0.061329037 4294901760
0.66830832 -0.49321103 0.061459571 4294901760
0.70696372 -0.46149802 0.061677068 4294901760
0.74169773 -0.4328537 0.056874186 4294901760
0.75329429 -0.42333984 0.056939453 4294901760
0.77654356 -0.40441489 0.062068552 4294901760
0.81127757 -0.37577057 0.057265669 4294901760
0.85766429 -0.33771515 0.057526678 4294901760
0.88472313 -0.315516 0.057678968 4294901760
0.95816845 -0.25526166 0.058092207 4294901760
0.96976513 -0.2457478 0.058157474 4294901760
1.0122864 -0.21086359 0.058396727 4294901760
1.04702 -0.18221951 0.053593785 4294901760
1.0702693 -0.16329432 0.058723003 4294901760
1.0856755 -0.1505065 0.053811282 4294901760
1.0972719 -0.14099264 0.053876549 4294901760
1.2596252 -0.0077986717 0.054790109 4294901760
1.2828183 0.011229038 0.054920584 4294901760
1.2982805 0.023914337 0.055007607 4294901760
1.3485327 0.065141201 0.055290371 4294901760
1.3601294 0.074655056 0.055355579 4294901760
1.371726 0.084168911 0.055420846 4294901760
1.4258437 0.12856698 0.055725366 4294901760
1.4413059 0.14125204 0.055812329 4294901760
1.5031548 0.19199276 0.056160361 4294901760
1.5108857 0.19833517 0.056203872 4294901760
-0.57211876 -1.5036451 0.029621214 4294941184
-0.55660033 -1.4910625 0.034706861 4294901760
-0.53727257 -1.4752061 0.03481558 4294901760
-0.52948534 -1.4689662 0.039857715 4294901760
-0.52158594 -1.4629318 0.054897159 4294901760
-0.5020898 -1.4473834 0.070001811 4294901760
-0.48662758 -1.4346983 0.070088774 4294901760
-0.4788965 -1.4283558 0.070132285 4294901760
-0.46349049 -1.4155679 0.065220684 4294901760
-0.45189381 -1.406054 0.065285951 4294901760
-0.40567559 -1.3676904 0.050551087 4294941184
-0.3901011 -1.3552108 0.060635298 4294901760
-0.3745828 -1.3426284 0.065720946 4294901760
-0.35519889 -1.3268746 0.070828348 4294901760
-0.29732794 -1.2790998 0.061157316 4294901760
-0.20449868 -1.2030916 0.066677958 4294901760
-0.18926099 -1.1899958 0.046770424 4294901760
-0.17760822 -1.1805845 0.051834315 4294901760
-0.16595545 -1.1711735 0.056898206 4294901760
-0.15430269 -1.1617622 0.061962098 4294901760
-0.14276217 -1.1521457 0.057028741 4294901760
-0.12752442 -1.1390498 0.037121147 4294901760
-0.061866328 -1.0850352 0.03249231 4294901760
-0.032505915 -1.0670471 0.23758842 4294941184
-0.025785252 -1.0588558 0.14765653 4294941184
-0.019449979 -1.0602036 0.36761802 4294941184
-0.022088215 -1.0553763 0.13268241 4294941184
-0.023266956 -1.0532196 0.027711183 4294901760
-0.015415937 -1.0573404 0.38263565 4294951168
-0.016089588 -1.0561078 0.3226521 4294941184
-0.011325985 -1.05458 0.40265194 4294951168
-0.015479714 -1.0469797 0.032753319 4294901760
-0.0033141673 -1.0487509 0.42768857 4294951168
0.011915892 -1.0253971 0.062897354 4294941184
0.028115362 -1.0243049 0.47285026 4294951168
0.039880365 -1.015099 0.4879114 4294967040
0.055510968 -1.002722 0.5029943 4294967040
0.094503373 -0.97162533 0.5332036 4294901760
0.11775276 -0.95270038 0.5383327 4294901760
0.15259883 -0.92426157 0.54352707 4294901760
0.17579219 -0.90523386 0.5436576 4294901760
0.1746057 -0.89281917 0.093802661 4294967040
0.18586561 -0.882689 0.063876122 4294941184
0.20183298 -0.87092829 0.10895076 4294951168
0.20962021 -0.8646884 0.1139929 4294941184
0.21673378 -0.85721612 0.059051543 4294901760
0.22593197 -0.86380172 0.53394306 4294951168
0.22127303 -0.85527706 0.11905685 4294901760
0.23213992 -0.84442806 0.054139882 4294901760
0.24139413 -0.85111666 0.53403008 4294941184
0.24452242 -0.83635211 0.12418595 4294941184
0.25146767 -0.8285718 0.054248661 4294901760
0.26839694 -0.82881474 0.52918375 4294951168
0.27607188 -0.82236934 0.52422857 4294967040
0.29523116 -0.80620503 0.50934148 4294967040
0.3066594 -0.7963829 0.49441081 4294967040
0.31808764 -0.78656101 0.47948018 4294951168
0.31326038 -0.77772856 0.049598008 4294901760
0.31836075 -0.77681661 0.15958962 4294941184
0.32710212 -0.77232289 0.24960847 4294941184
0.32637244 -0.77098775 0.18462625 4294901760
0.33287627 -0.77264333 0.41958362 4294941184
0.3318097 -0.77069211 0.32460964 4294941184
0.33063096 -0.76853514 0.21963842 4294941184
0.4099552 -0.69854903 0.055140406 4294901760
0.44087964 -0.67317867 0.055314451 4294901760
0.4524762 -0.66366482 0.055379659 4294901760
0.47953504 -0.64146566 0.055531949 4294901760
0.49499732 -0.6287806 0.055618912 4294901760
0.53365272 -0.59706783 0.055836469 4294901760
0.60323268 -0.53998446 0.056227952 4294901760
0.61869496 -0.5272994 0.056314975 4294901760
0.6302914 -0.51778555 0.056380183 4294901760
0.68059963 -0.47666168 0.061661571 4294901760
0.71533364 -0.44801712 0.056858748 4294901760
0.7269302 -0.4385035 0.056923956 4294901760
0.75785452 -0.41313314 0.057098001 4294901760
0.79264456 -0.38459158 0.057293743 4294901760
0.84289664 -0.34336472 0.057576507 4294901760
0.86222452 -0.32750821 0.057685226 4294901760
0.88928348 -0.3053093 0.057837516 4294901760
0.90087992 -0.29579544 0.057902724 4294901760
0.90861112 -0.28945279 0.057946235 4294901760
0.93566996 -0.26725388 0.058098525 4294901760
0.94345719 -0.26101398 0.063140661 4294901760
0.97819096 -0.23236966 0.058337778 4294901760
0.99365312 -0.2196846 0.058424741 4294901760
1.0554457 -0.16884136 0.053774089 4294901760
1.0747736 -0.15298486 0.053882867 4294901760
1.12116 -0.11492944 0.054143876 4294901760
1.1404877 -0.099073172 0.054252595 4294901760
1.1520844 -0.089559078 0.054317862 4294901760
1.1675465 -0.076874018 0.054404825 4294901760
1.1791432 -0.067360163 0.054470092 4294901760
1.1984708 -0.051503658 0.054578871 4294901760
1.2216642 -0.032475948 0.054709345 4294901760
1.2332609 -0.022962093 0.054774612 4294901760
1.2641852 0.0024082661 0.054948598 4294901760
1.3298995 0.05632019 0.055318385 4294901760
1.3840172 0.10071802 0.055622905 4294901760
1.4188073 0.12925982 0.055818647 4294901760
1.4651937 0.16731524 0.056079656 4294901760
-0.58688623 -1.5092946 0.029670924 4294941184
-0.5520401 -1.4808557 0.03486535 4294901760
-0.52845395 -1.4625469 0.069986254 4294901760
-0.52486908 -1.4588622 0.045014828 4294901760
-0.47439241 -1.4180462 0.06529215 4294901760
-0.44727743 -1.39595 0.070443064 4294901760
-0.43568075 -1.3864361 0.070508271 4294901760
-0.41640919 -1.370477 0.065618426 4294901760
-0.41663373 -1.3700662 0.045623869 4294941184
-0.40509313 -1.3604496 0.040690452 4294951168
-0.36610085 -1.3293529 0.070899814 4294901760
-0.35075098 -1.3164624 0.060989529 4294901760
-0.33534485 -1.3036745 0.056077927 4294901760
-0.31982654 -1.291092 0.061163574 4294901760
-0.30822986 -1.2815782 0.061228782 4294901760
-0.28503662 -1.2625505 0.061359316 4294901760
-0.26178724 -1.2436255 0.066488415 4294901760
-0.23859388 -1.2245977 0.066618949 4294901760
-0.21926618 -1.2087413 0.066727668 4294901760
-0.2001068 -1.1925768 0.051840574 4294901760
-0.13433629 -1.1387676 0.057208925 4294901760
-0.11909872 -1.1256716 0.037301391 4294901760
-0.11136752 -1.1193291 0.037344903 4294901760
-0.099770963 -1.1098152 0.03741017 4294901760
-0.076633871 -1.0906848 0.03254202 4294901760
-0.049631178 -1.0683832 0.027695626 4294901760
-0.041899979 -1.0620406 0.027739137 4294901760
-0.035508454 -1.0634909 0.25269932 4294941184
-0.031474531 -1.0606277 0.26771694 4294941184
-0.032092035 -1.0594981 0.21273199 4294941184
-0.027216017 -1.0581753 0.30272913 4294941184
-0.02738446 -1.0578673 0.2877332 4294941184
-0.023238242 -1.0552094 0.31274813 4294941184
-0.024641573 -1.0526419 0.18778238 4294941184
-0.024810016 -1.0523338 0.1727865 4294941184
-0.018867552 -1.0529625 0.35775757 4294941184
-0.018979728 -1.0527573 0.34776026 4294941184
-0.010462821 -1.0478525 0.41778457 4294967040
-0.010021389 -1.0384161 0.11288986 4294941184
-0.0025072694 -1.0419207 0.43782258 4294951168
0.0053922534 -1.0358863 0.45286199 4294951168
0.013291776 -1.0298517 0.46790138 4294951168
0.0088573098 -1.0217381 0.07300958 4294941184
0.0084082484 -1.0209165 0.033020526 4294901760
0.016251624 -1.0147793 0.043061286 4294901760
0.044496715 -1.0049949 0.49306855 4294967040
0.060127437 -0.99261785 0.50815141 4294967040
0.067970693 -0.98648071 0.51819217 4294967040
0.13010019 -0.93625379 0.54353333 4294901760
0.13783127 -0.92991114 0.54357684 4294901760
0.16102463 -0.91088343 0.54370737 4294901760
0.16364771 -0.89519477 0.088875502 4294967040
0.16342312 -0.89478397 0.068881005 4294951168
0.17933434 -0.88292027 0.10895702 4294941184
0.19098717 -0.87350917 0.11402085 4294901760
0.21116441 -0.86945128 0.53399283 4294941184
0.22969875 -0.84189892 0.1192371 4294941184
0.24589822 -0.84080696 0.52918994 4294967040
0.25357315 -0.83436155 0.52423483 4294967040
0.25294837 -0.82297397 0.12436625 4294941184
0.26454493 -0.81346011 0.12443152 4294941184
0.26375911 -0.81202221 0.054450661 4294901760
0.27149019 -0.8056798 0.054494113 4294901760
0.28819484 -0.80551195 0.5094347 4294967040
0.28689617 -0.79289198 0.049582452 4294901760
0.29160374 -0.7912612 0.12458375 4294901760
0.299447 -0.78512406 0.13462451 4294901760
0.29849285 -0.78337812 0.049647719 4294901760
0.30729038 -0.77898693 0.14466527 4294901760
0.31950456 -0.7706027 0.19971547 4294941184
0.31782061 -0.76752162 0.049756438 4294901760
0.32623273 -0.77266932 0.45466727 4294951168
0.3254469 -0.77123141 0.38468647 4294901760
0.32516617 -0.7707181 0.35969335 4294941184
0.32499784 -0.77040982 0.34469742 4294941184
0.32454878 -0.76958823 0.30470842 4294941184
0.33333892 -0.75493908 0.054842144 4294901760
0.3449356 -0.74542522 0.054907411 4294901760
0.35266668 -0.73908257 0.054950923 4294901760
0.39518768 -0.7041986 0.055190176 4294901760
0.41838104 -0.68517089 0.05532065 4294901760
0.42997772 -0.6756568 0.055385917 4294901760
0.45703644 -0.65345788 0.055538148 4294901760
0.46863312 -0.64394403 0.055603415 4294901760
0.51888531 -0.6027174 0.055886179 4294901760
0.54207855 -0.58368969 0.056016654 4294901760
0.55367512 -0.57417583 0.056081921 4294901760
0.65423554 -0.4918251 0.061646074 4294901760
0.6696977 -0.4791398 0.061733097 4294901760
0.69283491 -0.46000934 0.056864947 4294901760
0.70443171 -0.45049548 0.056930214 4294901760
0.73143429 -0.42819405 0.05208376 4294901760
0.82039803 -0.35535693 0.057582706 4294901760
0.83199471 -0.34584308 0.057647973 4294901760
0.95569247 -0.24436188 0.058343977 4294901760
0.96728915 -0.23484802 0.058409244 4294901760
1.0136194 -0.19668984 0.053671569 4294901760
1.0252161 -0.18717599 0.053736836 4294901760
1.087065 -0.13643551 0.054084808 4294901760
1.1025271 -0.12375021 0.05417183 4294901760
1.1257203 -0.1047225 0.054302305 4294901760
1.2068968 -0.038125515 0.054759115 4294901760
1.2494178 -0.003241539 0.054998368 4294901760
1.2842078 0.025300264 0.05519411 4294901760
1.3151321 0.050670385 0.055368096 4294901760
1.3731153 0.098239899 0.055694371 4294901760
1.4001744 0.12043881 0.055846602 4294901760
1.427233 0.14263773 0.055998892 4294901760
1.4465609 0.15849423 0.05610761 4294901760
1.4736197 0.18069339 0.0562599 4294901760
1.4890819 0.19337845 0.056346864 4294901760
-0.60944092 -1.5211841 0.024678618 4294941184
-0.57453877 -1.4928479 0.034871608 4294901760
-0.54327756 -1.4680939 0.065037459 4294901760
-0.52389371 -1.4523401 0.070144802 4294901760
-0.5007565 -1.4332098 0.065276712 4294901760
-0.48915988 -1.4236959 0.06534192 4294901760
-0.43112051 -1.3762293 0.07066682 4294901760
-0.41190499 -1.3601674 0.06077835 4294901760
-0.38865566 -1.3412424 0.065907449 4294901760
-0.36159676 -1.3190434 0.066059738 4294901760
-0.2804203 -1.2524464 0.066516489 4294901760
-0.15683496 -1.1507598 0.057215244 4294901760
-0.087479666 -1.0932659 0.03761217 4294901760
-0.060476974 -1.0709641 0.032765836 4294901760
-0.034869984 -1.0563526 0.24783741 4294941184
-0.031172708 -1.0528734 0.23286326 4294941184
-0.031285003 -1.0526679 0.22286598 4294941184
-0.027700141 -1.0489831 0.1978946 4294941184
-0.021869957 -1.0494065 0.37286842 4294941184
-0.024395898 -1.0447848 0.14793006 4294941184
-0.017667711 -1.0468514 0.40288195 4294951168
-0.016889274 -1.0380313 0.12797907 4294941184
-0.014090359 -1.0329087 0.033026844 4294901760
-0.0055734515 -1.0280039 0.10305116 4294941184
-0.0063592792 -1.026566 0.033070296 4294901760
0.0021016002 -1.0215588 0.098095983 4294941184
0.0058549047 -1.018182 0.08812049 4294941184
0.01347369 -1.0116341 0.078166753 4294951168
0.017170846 -1.0081546 0.063192636 4294941184
0.025695264 -1.0135078 0.47810066 4294967040
0.080318272 -0.97003412 0.5233928 4294951168
0.09197098 -0.96062303 0.52845669 4294941184
0.11914212 -0.93862939 0.53860623 4294901760
0.16058904 -0.891536 0.098987788 4294967040
0.17325979 -0.89423132 0.53891075 4294901760
0.16837627 -0.88529611 0.10402992 4294951168
0.17179281 -0.88130307 0.064062685 4294941184
0.18866593 -0.8814435 0.53399909 4294941184
0.18725497 -0.86861801 0.064149648 4294941184
0.19560355 -0.86340523 0.11917809 4294901760
0.2156685 -0.85914183 0.52915269 4294967040
0.21806711 -0.84304237 0.054326445 4294901760
0.23107448 -0.84635377 0.52424109 4294967040
0.22966376 -0.83352852 0.054391652 4294901760
0.24512592 -0.82084322 0.054478675 4294901760
0.27348331 -0.81126428 0.51448309 4294967040
0.27683619 -0.79691076 0.12463346 4294901760
0.29264277 -0.79509974 0.49959594 4294967040
0.30026156 -0.78855181 0.4896422 4294951168
0.30788034 -0.78200388 0.47968847 4294951168
0.31163377 -0.77862716 0.46971291 4294951168
0.31229967 -0.76960182 0.18481275 4294941184
0.31734401 -0.76858735 0.28980571 4294901760
0.31711954 -0.76817656 0.26981121 4294941184
0.31700724 -0.76797104 0.25981396 4294941184
0.31683892 -0.767663 0.24481808 4294941184
0.32283741 -0.76839447 0.43478778 4294941184
0.32261282 -0.76798344 0.41479325 4294941184
0.32154638 -0.76603222 0.31981927 4294941184
0.32059211 -0.76428628 0.23484258 4294941184
0.36882359 -0.71936202 0.055174679 4294901760
0.47705883 -0.63056612 0.055783719 4294901760
0.49252099 -0.61788106 0.055870682 4294901760
0.50411779 -0.60836697 0.055935949 4294901760
0.56210107 -0.56079769 0.056262225 4294901760
0.57369763 -0.55128384 0.056327492 4294901760
0.59302539 -0.53542733 0.056436211 4294901760
0.61621863 -0.51639986 0.056566745 4294901760
0.63941199 -0.49737215 0.05669722 4294901760
0.67812341 -0.4657619 0.061913341 4294901760
0.73991627 -0.41491842 0.057262748 4294901760
0.75151283 -0.40540481 0.057328016 4294901760
0.76310951 -0.39589071 0.057393223 4294901760
0.77857178 -0.38320565 0.057480246 4294901760
0.79789954 -0.36734915 0.057589024 4294901760
0.8094961 -0.35783529 0.057654232 4294901760
0.83655494 -0.33563638 0.057806522 4294901760
0.86747962 -0.31026602 0.057980508 4294901760
0.91000038 -0.2753818 0.058219761 4294901760
0.94479042 -0.24684024 0.058415502 4294901760
0.97184926 -0.22464108 0.058567792 4294901760
1.0336418 -0.17379808 0.05391708 4294901760
1.091625 -0.12622857 0.054243356 4294901760
1.1148183 -0.10720086 0.05437389 4294901760
1.1418769 -0.085001945 0.05452612 4294901760
1.1534736 -0.075488091 0.054591388 4294901760
1.1805327 -0.053289175 0.054743618 4294901760
1.1882637 -0.046946526 0.054787129 4294901760
1.253978 0.0069651604 0.055156857 4294901760
1.2655747 0.016479254 0.055222124 4294901760
1.296499 0.041849613 0.05539611 4294901760
1.30423 0.048192263 0.055439621 4294901760
1.3506167 0.086247683 0.05570063 4294901760
1.3815413 0.11161804 0.055874676 4294901760
1.4356587 0.15601611 0.056179136 4294901760
1.4975076 0.20675659 0.056527168 4294901760
-0.60482454 -1.51108 0.029835731 4294901760
-0.54672909 -1.4637161 0.040159196 4294901760
-0.51546788 -1.438962 0.070325047 4294901760
-0.51182687 -1.4353799 0.050352305 4294941184
-0.4613502 -1.394564 0.070629567 4294901760
-0.40364766 -1.3464812 0.045962602 4294941184
-0.3840954 -1.3310356 0.066065937 4294901760
-0.34947392 -1.3021859 0.051265806 4294901760
-0.3339555 -1.2896034 0.056351453 4294901760
-0.30297497 -1.2643359 0.061524063 4294901760
-0.23333898 -1.2073554 0.066914231 4294901760
-0.22179845 -1.1977388 0.061980814 4294901760
-0.21025798 -1.1881223 0.057047457 4294901760
-0.19485191 -1.1753345 0.052135855 4294901760
-0.18319914 -1.1659232 0.057199687 4294901760
-0.17160252 -1.1564094 0.057264954 4294901760
-0.140678 -1.131039 0.05743894 4294901760
-0.12157483 -1.1147718 0.037553161 4294901760
-0.10997815 -1.105258 0.037618428 4294901760
-0.10224707 -1.0989155 0.03766194 4294901760
-0.079053834 -1.0798877 0.037792414 4294901760
-0.033894494 -1.0498307 0.27296734 4294941184
-0.034062937 -1.0495224 0.25797141 4294941184
-0.03664501 -1.0447981 0.028034419 4294901760
-0.030702665 -1.0454268 0.21300551 4294901760
-0.027173832 -1.0416393 0.18303546 4294941184
-0.020950764 -1.0427818 0.39299971 4294951168
-0.021624416 -1.0415492 0.3330161 4294941184
-0.02358897 -1.0379546 0.15806404 4294941184
-0.0048150718 -1.0313289 0.45307025 4294951168
-0.00089332461 -1.0282605 0.45809063 4294951168
0.014737159 -1.0158834 0.4731735 4294967040
0.0097976029 -1.0068455 0.033294052 4294901760
0.017697126 -1.0008109 0.048333436 4294901760
0.034289509 -1.0004377 0.4932768 4294967040
0.10045293 -0.94734764 0.53363556 4294901760
0.15076116 -0.90622354 0.53891695 4294901760
0.14576533 -0.89708281 0.094038874 4294967040
0.14935032 -0.89339805 0.069067508 4294951168
0.16235784 -0.89670968 0.53898221 4294901760
0.17776385 -0.88392186 0.53407061 4294941184
0.20095721 -0.86489415 0.53420109 4294941184
0.1994901 -0.8519659 0.059353024 4294901760
0.20402935 -0.85002708 0.11935833 4294901760
0.21630707 -0.85200334 0.52429086 4294967040
0.21568206 -0.84061599 0.12442222 4294901760
0.23114434 -0.82793069 0.12450919 4294901760
0.23887542 -0.82158828 0.1245527 4294941184
0.2471191 -0.8264277 0.5144676 4294967040
0.25490645 -0.82018781 0.51950973 4294967040
0.26201263 -0.80245757 0.11968461 4294941184
0.27276722 -0.79140329 0.04477033 4294901760
0.3050949 -0.7686007 0.16991016 4294941184
0.31591326 -0.7679069 0.44487828 4294951168
0.31518358 -0.76657176 0.3798961 4294901760
0.31507128 -0.76636624 0.36989886 4294901760
0.31484681 -0.76595545 0.3499043 4294941184
0.31422931 -0.76482558 0.29491937 4294901760
0.31327504 -0.76307964 0.20994267 4294941184
0.31927353 -0.76381111 0.39991239 4294941184
0.3184877 -0.76237321 0.32993156 4294941184
0.31920999 -0.75345063 0.050029963 4294901760
0.32699722 -0.74721074 0.055072159 4294901760
0.35792166 -0.72184038 0.055246145 4294901760
0.3811149 -0.70281267 0.055376679 4294901760
0.40430814 -0.68378496 0.055507153 4294901760
0.41590494 -0.67427111 0.05557242 4294901760
0.43909818 -0.6552434 0.055702955 4294901760
0.45842582 -0.63938689 0.055811673 4294901760
0.52414018 -0.58547497 0.056181461 4294901760
0.53573686 -0.57596111 0.056246668 4294901760
0.55119914 -0.56327605 0.056333691 4294901760
0.6053167 -0.51887798 0.056638211 4294901760
0.65175933 -0.48092532 0.061897844 4294901760
0.67103106 -0.46496606 0.057007939 4294901760
0.7019555 -0.43959594 0.057181984 4294901760
0.71736151 -0.42680812 0.052270263 4294901760
0.76766974 -0.38568401 0.057551712 4294901760
0.8411153 -0.32542944 0.05796501 4294901760
0.85271198 -0.31591558 0.058030218 4294901760
0.87590522 -0.29688787 0.058160752 4294901760
0.89523309 -0.28103137 0.058269471 4294901760
0.91842622 -0.26200366 0.058400005 4294901760
0.93388861 -0.2493186 0.058486968 4294901760
0.98027509 -0.21126318 0.058747977 4294901760
0.99181551 -0.20164657 0.05381456 4294901760
1.038202 -0.16359115 0.054075569 4294901760
1.0497987 -0.15407729 0.054140836 4294901760
1.0575297 -0.14773488 0.054184347 4294901760
1.1039164 -0.10967922 0.054445356 4294901760
1.1271098 -0.090651512 0.054575831 4294901760
1.1618998 -0.062109947 0.054771572 4294901760
1.1966896 -0.033568382 0.054967374 4294901760
1.2082863 -0.024054527 0.055032581 4294901760
1.2237484 -0.011369467 0.055119604 4294901760
1.3126562 0.061570406 0.055619866 4294901760
1.3242526 0.071084261 0.055685133 4294901760
1.3397148 0.083769321 0.055772096 4294901760
1.3590426 0.099625826 0.055880874 4294901760
1.4054291 0.13768125 0.056141883 4294901760
1.4170258 0.1471951 0.05620715 4294901760
1.4479501 0.17256546 0.056381136 4294901760
1.459547 0.18207932 0.056446403 4294901760
1.4711435 0.19159317 0.05651167 4294901760
-0.59639883 -1.4977019 0.030015975 4294941184
-0.58866775 -1.4913594 0.030059487 4294941184
-0.57701492 -1.4819481 0.035123378 4294901760
-0.56541824 -1.4724343 0.035188645 4294901760
-0.5534848 -1.4635366 0.065245718 4294901760
-0.54194427 -1.4539201 0.060312301 4294901760
-0.54216886 -1.4535093 0.040317744 4294901760
-0.53051615 -1.4440981 0.045381635 4294941184
-0.52261651 -1.4380636 0.060421079 4294901760
-0.50726664 -1.4251732 0.050510854 4294941184
-0.49942324 -1.4190359 0.060551554 4294901760
-0.47611776 -1.4002136 0.070679337 4294901760
-0.45679 -1.3843572 0.070788115 4294901760
-0.44519332 -1.3748434 0.070853323 4294901760
-0.43365285 -1.3652267 0.065919966 4294901760
-0.41841516 -1.3521308 0.046012431 4294951168
-0.41443732 -1.349165 0.056031495 4294901760
-0.37566957 -1.3176575 0.066246241 4294901760
-0.3603197 -1.304767 0.056335956 4294901760
-0.32160798 -1.2731568 0.061552078 4294901760
-0.27522144 -1.2351013 0.061813086 4294901760
-0.25589374 -1.219245 0.061921865 4294901760
-0.24816254 -1.2129023 0.061965376 4294901760
-0.20569769 -1.1779155 0.057206005 4294901760
-0.16704229 -1.1462026 0.057423502 4294901760
-0.13623014 -1.1206269 0.04760018 4294901760
-0.13247678 -1.1172502 0.037624687 4294901760
-0.070684165 -1.066407 0.032974094 4294901760
-0.063009232 -1.0599618 0.028018981 4294941184
-0.036953181 -1.0461719 0.28307956 4294941184
-0.032919258 -1.0433087 0.29809725 4294941184
-0.033480614 -1.0422816 0.24811091 4294941184
-0.033705086 -1.0418708 0.22811638 4294941184
-0.028885216 -1.0404456 0.31311482 4294941184
-0.024626821 -1.0379932 0.34812701 4294941184
-0.026647657 -1.0342958 0.16817632 4294941184
-0.028219312 -1.03142 0.028214723 4294901760
-0.019975394 -1.0362597 0.41812959 4294967040
-0.020985812 -1.034411 0.32815427 4294941184
-0.023062676 -1.030611 0.14320496 4294941184
-0.011963695 -1.0304306 0.44316623 4294951168
-0.01549992 -1.0239604 0.1282526 4294941184
-0.0041839778 -1.0139329 0.10332468 4294901760
0.014919192 -0.99766564 0.083438903 4294941184
0.023275286 -1.0027106 0.48335102 4294967040
0.022481829 -0.99101496 0.068486542 4294941184
0.022313505 -0.99070692 0.053490669 4294941184
0.02220121 -0.9905014 0.04349336 4294901760
0.042771369 -0.98716235 0.49845567 4294967040
0.054480463 -0.97785378 0.50851816 4294967040
0.10887864 -0.9339695 0.53381586 4294901760
0.12439707 -0.92138696 0.53890145 4294901760
0.13599363 -0.9118731 0.53896672 4294901760
0.13861671 -0.89618444 0.084134907 4292280064
0.14657238 -0.89025259 0.10417292 4294951168
0.15777615 -0.8800199 0.069247812 4294951168
0.16214684 -0.87777281 0.11425719 4294901760
0.18153074 -0.86201906 0.11936459 4294901760
0.18858817 -0.85444427 0.059424549 4294901760
0.2078599 -0.838485 0.054534703 4294901760
0.22854224 -0.83535147 0.51949424 4294967040
0.22718766 -0.8226285 0.054643422 4294901760
0.24337962 -0.81127858 0.11971262 4294941184
0.24645928 -0.80666947 0.049753517 4294901760
0.2593545 -0.80977559 0.50967097 4294967040
0.27089503 -0.80015898 0.50473762 4294967040
0.27851382 -0.79361105 0.49478382 4294967040
0.28618875 -0.78716588 0.48982871 4294951168
0.28220335 -0.77987385 0.13492599 4294901760
0.28119305 -0.77802515 0.044950634 4294901760
0.29794627 -0.76770234 0.16000614 4294941184
0.30209249 -0.76504445 0.18502101 4294941184
0.30057698 -0.7622714 0.050058037 4294901760
0.30904526 -0.76752186 0.45996743 4294951168
0.30708057 -0.76392722 0.28501534 4294901760
0.31246179 -0.76352906 0.42000014 4294941184
0.31161982 -0.7619884 0.34502065 4294941184
