# .PCD v0.7 - Point Cloud Data file format
VERSION 0.7
FIELDS x y z rgb
SIZE 4 4 4 4
TYPE F F F U
COUNT 1 1 1 1
WIDTH 1066
HEIGHT 1
VIEWPOINT 0 0 0 1 0 0 0
POINTS 1066
DATA ascii
-1.4987764 0.5846135 -0.24196607 4294941184
-1.4987166 0.58431834 -0.23697513 4294941184
-1.5000377 0.5814746 -0.27219117 4294941184
-1.6899407 -0.44868743 -0.34587008 4294901760
-1.6943982 -0.47353137 -0.34227693 4294901760
-1.6953614 -0.47814572 -0.34754741 4294901760
-1.6953018 -0.47844088 -0.34255648 4294901760
-1.7007821 -0.50760424 -0.34922472 4294901760
-1.7007225 -0.5078994 -0.34423381 4294901760
-1.7062027 -0.537063 -0.35090205 4294901760
-1.7061431 -0.53735816 -0.34591112 4294901760
-1.7106602 -0.5619067 -0.34730887 4294901760
-1.7106006 -0.56220162 -0.34231797 4294901760
-1.7116234 -0.56652153 -0.35257936 4294901760
-1.7115638 -0.56681669 -0.34758842 4294901760
-1.7115037 -0.56711161 -0.34259751 4294901760
-1.7169845 -0.59627497 -0.34926575 4294901760
-1.7169244 -0.5965699 -0.34427485 4294901760
-1.7224052 -0.62573349 -0.35094306 4294901760
-1.7223451 -0.62602842 -0.34595215 4294901760
-1.7277658 -0.65548694 -0.34762946 4294901760
-1.7277067 -0.6557821 -0.34263855 4294901760
-1.7331865 -0.68494546 -0.34930679 4294901760
-1.7331274 -0.68524063 -0.34431586 4294901760
-1.7330673 -0.68553579 -0.33932495 4294901760
-1.738548 -0.71469891 -0.34599319 4294901760
-1.738488 -0.71499407 -0.34100226 4294901760
-1.7439086 -0.7444526 -0.34267956 4294901760
-1.7438495 -0.74474776 -0.33768865 4294901760
-1.7493293 -0.77391112 -0.34435689 4294901760
-1.7492702 -0.77420628 -0.33936596 4294901760
-1.75475 -0.80336988 -0.3460342 4294901760
-1.7546909 -0.80366504 -0.34104329 4294901760
-1.7546308 -0.8039602 -0.33605236 4294901760
-1.7600515 -0.83341849 -0.33772969 4294901760
-1.7654722 -0.86287701 -0.339407 4294901760
-1.765413 -0.86317217 -0.33441609 4294901760
-1.7708337 -0.8926307 -0.3360934 4294901760
-1.7707736 -0.89292586 -0.33110246 4294901760
-1.7770979 -0.92729414 -0.33305934 4294901760
-1.781615 -0.95184267 -0.3344571 4294901760
-1.7815554 -0.95213783 -0.32946616 4294901760
-1.7825186 -0.95675266 -0.33473668 4294901760
-1.782459 -0.95704782 -0.32974574 4294901760
-1.7869761 -0.98159635 -0.3311435 4294901760
-1.7869165 -0.98189151 -0.32615256 4294901760
-1.7923372 -1.01135 -0.3278299 4294901760
-1.7922776 -1.0116452 -0.32283896 4294901760
-1.7932408 -1.0162598 -0.32810944 4294901760
-1.7931812 -1.016555 -0.32311851 4294901760
-1.7976983 -1.0411037 -0.32451627 4294901760
-1.7976387 -1.0413989 -0.31952536 4294901760
-1.7986019 -1.0460135 -0.32479581 4294901760
-1.7985418 -1.0463086 -0.31980491 4294901760
-1.800349 -1.0561281 -0.320364 4294901760
-1.8002894 -1.0564233 -0.31537309 4294901760
-1.8030593 -1.0708574 -0.32120267 4294901760
-1.8029997 -1.0711526 -0.31621176 4294901760
-1.8039625 -1.0757672 -0.32148221 4294901760
-1.8039033 -1.0760623 -0.31649131 4294901760
-1.8038433 -1.0763575 -0.31150037 4294901760
-1.8075168 -1.0957013 -0.31760952 4294901760
-1.8074572 -1.0959965 -0.31261858 4294901760
-1.8084204 -1.1006111 -0.31788906 4294901760
-1.8083608 -1.1009063 -0.31289816 4294901760
-1.8110712 -1.1156353 -0.3137368 4294901760
-1.8110111 -1.1159304 -0.30874589 4294941184
-1.3545055 1.3950301 -0.18574606 4294941184
-1.3691397 1.3173596 -0.20519169 4294967040
-1.3728132 1.2980157 -0.21130082 4294967040
-1.376606 1.2792622 -0.22739181 4294967040
-1.3764865 1.2786719 -0.21740995 4294951168
-1.3775094 1.2743524 -0.22767136 4294951168
-1.3774498 1.2740573 -0.22268045 4294951168
-1.3813617 1.2558941 -0.24875328 4294901760
-1.3813021 1.2555989 -0.24376234 4294941184
-1.3812425 1.2553037 -0.23877144 4294941184
-1.3811827 1.2550086 -0.2337805 4294941184
-1.3851545 1.2371405 -0.26484427 4294901760
-1.385035 1.2365502 -0.25486243 4294901760
-1.4146192 1.0640111 -0.16953965 4294967040
-1.4182329 1.0443721 -0.17065786 4292280064
-1.421787 1.0244379 -0.16678515 4284743424
-1.4227502 1.0198233 -0.17205562 4292280064
-1.4255202 1.0053892 -0.1778852 4292280064
-1.4254606 1.0050941 -0.17289428 4284743424
-1.4291339 0.98575014 -0.17900342 4294967040
-1.4290743 0.98545498 -0.1740125 4294967040
-1.4301567 0.98143059 -0.18926482 4294967040
-1.4300971 0.98113555 -0.18427391 4294967040
-1.4311197 0.976816 -0.1945353 4294967040
-1.4310601 0.97652084 -0.18954436 4294967040
-1.4310005 0.97622579 -0.18455346 4294967040
-1.4309409 0.97593063 -0.17956252 4294967040
-1.4308813 0.97563547 -0.1745716 4294967040
-1.4320829 0.97220141 -0.19980578 4294951168
-1.4339495 0.96267706 -0.20535581 4294951168
-1.4338899 0.9623819 -0.20036489 4294951168
-1.43383 0.96208674 -0.19537397 4294951168
-1.4337704 0.96179157 -0.19038303 4294951168
-1.4337108 0.96149653 -0.18539213 4294951168
-1.4378018 0.94421881 -0.22643772 4294951168
-1.4377422 0.94392365 -0.22144678 4294951168
-1.4376824 0.94362849 -0.21645586 4294951168
-1.4376228 0.94333333 -0.21146493 4294951168
-1.4375632 0.94303817 -0.20647401 4294951168
-1.4375036 0.942743 -0.20148309 4294941184
-1.4415348 0.92517 -0.23753777 4294951168
-1.4414752 0.92487496 -0.23254685 4294951168
-1.4413559 0.92428464 -0.222565 4294951168
-1.460516 0.81272835 -0.16882408 4294967040
-1.4614196 0.80781859 -0.16910364 4294967040
-1.4622633 0.80261368 -0.16439226 4294967040
-1.4649737 0.78788441 -0.16523091 4294967040
-1.4649141 0.78758925 -0.16023998 4294967040
-1.4648545 0.78729409 -0.15524906 4294967040
-1.4685278 0.76795036 -0.16135819 4294967040
-1.4684682 0.76765519 -0.15636727 4292280064
-1.4684086 0.76736003 -0.15137635 4292280064
-1.4703944 0.75842601 -0.16690823 4294967040
-1.4702752 0.75783569 -0.15692638 4292280064
-1.4712381 0.75322109 -0.16219686 4292280064
-1.4711785 0.75292593 -0.15720594 4292280064
-1.4721415 0.74831122 -0.16247642 4292280064
-1.4720819 0.74801606 -0.1574855 4292280064
-1.4720223 0.7477209 -0.15249458 4292280064
-1.4757555 0.72867221 -0.16359463 4292280064
-1.4756958 0.72837704 -0.15860371 4292280064
-1.475636 0.72808188 -0.15361279 4292280064
-1.4791903 0.70814794 -0.14974006 4294967040
-1.481355 0.70009929 -0.18024471 4294951168
-1.4812953 0.69980413 -0.17525379 4294967040
-1.4812357 0.69950897 -0.17026287 4294967040
-1.4811761 0.6992138 -0.16527194 4294967040
-1.4811165 0.69891864 -0.16028102 4294967040
-1.4822586 0.69518954 -0.18052427 4294951168
-1.4821987 0.69489437 -0.17553335 4294967040
-1.4821391 0.69459921 -0.17054243 4294967040
-1.4820795 0.69430405 -0.1655515 4294967040
-1.4831619 0.69027978 -0.18080382 4294951168
-1.4831023 0.68998462 -0.1758129 4294967040
-1.4830425 0.68968946 -0.17082198 4294967040
-1.4829829 0.6893943 -0.16583104 4294967040
-1.492435 0.64236301 -0.20356306 4294951168
-1.4923754 0.64206785 -0.19857213 4294951168
-1.4923155 0.64177269 -0.19358121 4294951168
-1.4922559 0.64147753 -0.18859029 4294941184
-1.4934576 0.63804346 -0.21382447 4294951168
-1.493398 0.6377483 -0.20883353 4294951168
-1.4933383 0.63745326 -0.20384263 4294951168
-1.4932787 0.6371581 -0.19885169 4294941184
-1.4932191 0.63686293 -0.19386077 4294941184
-1.4944208 0.63342887 -0.21909493 4294951168
-1.4943612 0.63313371 -0.21410401 4294951168
-1.4943016 0.63283855 -0.20911308 4294941184
-1.4942417 0.6325435 -0.20412217 4294941184
-1.4941821 0.63224834 -0.19913124 4294941184
-1.4941225 0.63195318 -0.19414032 4294941184
-1.4953241 0.628519 -0.21937449 4294951168
-1.4952645 0.62822384 -0.21438357 4294951168
-1.5048954 0.58207792 -0.26708835 4294941184
-1.5048358 0.58178276 -0.26209742 4294951168
-1.5047762 0.5814876 -0.25710651 4294951168
-1.5046568 0.58089739 -0.24712464 4294951168
-1.5045972 0.58060223 -0.24213372 4294941184
-1.5059183 0.57775849 -0.27734977 4294901760
-1.5058587 0.57746333 -0.27235883 4294941184
-1.5057988 0.57716817 -0.2673679 4294951168
-1.5057392 0.576873 -0.26237699 4294951168
-1.5056796 0.57657784 -0.25738606 4294951168
-1.5055604 0.57598764 -0.2474042 4294951168
-1.5068216 0.57284874 -0.27762932 4294901760
-1.506762 0.57255358 -0.27263838 4294941184
-1.5067024 0.57225841 -0.26764745 4294951168
-1.5066426 0.57196325 -0.26265654 4294951168
-1.506583 0.57166809 -0.2576656 4294951168
-1.5065234 0.57137305 -0.25267467 4294951168
-1.5077846 0.56823415 -0.2828998 4294901760
-1.5076654 0.56764382 -0.27291793 4294941184
-1.5076058 0.56734866 -0.26792702 4294951168
-1.6939547 -0.44287932 -0.34547865 4294901760
-1.6938951 -0.44317448 -0.34048772 4294901760
-1.6984718 -0.46742785 -0.34687641 4294901760
-1.6984122 -0.46772301 -0.34188548 4294901760
-1.699435 -0.47204268 -0.35214689 4294901760
-1.6993754 -0.47233784 -0.34715596 4294901760
-1.6993158 -0.472633 -0.34216502 4294901760
-1.7047961 -0.50179636 -0.34883329 4294901760
-1.7047365 -0.50209153 -0.34384236 4294901760
-1.7102168 -0.53125465 -0.3505106 4294901760
-1.7101572 -0.53154981 -0.34551966 4294901760
-1.7156374 -0.56071317 -0.35218793 4294901760
-1.7155778 -0.56100833 -0.347197 4294901760
-1.7155178 -0.56130326 -0.34220606 4294901760
-1.7209985 -0.59046686 -0.3488743 4294901760
-1.7209384 -0.59076178 -0.34388337 4294901760
-1.7264192 -0.61992538 -0.35055161 4294901760
-1.7263591 -0.6202203 -0.3455607 4294901760
-1.7317798 -0.64967859 -0.347238 4294901760
-1.7372005 -0.67913735 -0.34891534 4294901760
-1.7371414 -0.67943251 -0.34392443 4294901760
-1.7425621 -0.70889103 -0.34560174 4294901760
-1.742502 -0.7091862 -0.3406108 4294901760
-1.7470791 -0.73343956 -0.3469995 4294901760
-1.7479227 -0.73864472 -0.34228811 4294901760
-1.7478635 -0.73893988 -0.3372972 4294901760
-1.7533433 -0.768103 -0.34396544 4294901760
-1.7532842 -0.76839817 -0.33897451 4294901760
-1.758764 -0.79756153 -0.34564275 4294901760
-1.7587049 -0.79785669 -0.34065184 4294901760
-1.7586448 -0.79815185 -0.3356609 4294901760
-1.7640655 -0.82761037 -0.33733824 4294901760
-1.7694862 -0.8570689 -0.33901554 4294901760
-1.7694266 -0.85736406 -0.33402461 4294901760
-1.7749069 -0.88652718 -0.34069288 4294901760
-1.7748473 -0.88682234 -0.33570194 4294901760
-1.7747877 -0.88711751 -0.33071101 4294901760
-1.7802083 -0.91657627 -0.33238834 4294901760
-1.781112 -0.92148578 -0.33266789 4294901760
-1.785629 -0.94603479 -0.33406565 4294901760
-1.7855694 -0.94632995 -0.32907474 4294901760
-1.7909901 -0.97578847 -0.33075204 4294901760
-1.7909305 -0.97608364 -0.32576114 4294901760
-1.7963512 -1.0055419 -0.32743844 4294901760
-1.7962916 -1.0058371 -0.32244751 4294901760
-1.8017123 -1.0352956 -0.32412484 4294901760
-1.8016527 -1.0355908 -0.31913391 4294901760
-1.805207 -1.0555249 -0.31526119 4294901760
-1.8070734 -1.0650493 -0.32081121 4294901760
-1.8070138 -1.0653445 -0.31582031 4294901760
-1.8088801 -1.0748688 -0.32137033 4294901760
-1.8088205 -1.075164 -0.3163794 4294901760
-1.8087609 -1.0754591 -0.31138849 4294901760
-1.8124344 -1.094803 -0.31749761 4294901760
-1.8123748 -1.0950981 -0.31250671 4294901760
-1.8159883 -1.1147369 -0.31362492 4294901760
-1.8159287 -1.1150321 -0.30863398 4294901760
-1.3639998 1.371675 -0.19202286 4294951168
-1.37502 1.3136435 -0.21035026 4294967040
-1.3786936 1.2942996 -0.21645941 4294967040
-1.3824265 1.2752509 -0.22755948 4294951168
-1.3863385 1.2570877 -0.25363231 4294901760
-1.3862789 1.2567925 -0.24864139 4294901760
-1.3862193 1.2564974 -0.24365047 4294941184
-1.3861597 1.2562022 -0.23865953 4294941184
-1.390012 1.2377439 -0.25974146 4294901760
-1.4204397 1.0599997 -0.16970731 4294967040
-1.4276674 1.0207217 -0.17194372 4284743424
-1.4276078 1.0204265 -0.1669528 4278751232
-1.4313409 1.0013778 -0.17805287 4292280064
-1.4312811 1.0010827 -0.17306195 4284743424
-1.4312215 1.0007875 -0.16807103 4284743424
-1.4350739 0.98232901 -0.18915293 4294967040
-1.4350142 0.98203397 -0.18416202 4294967040
-1.4349546 0.98173881 -0.17917109 4294967040
-1.434895 0.98144364 -0.17418016 4294967040
-1.4369404 0.97280467 -0.19470297 4294967040
-1.4368808 0.9725095 -0.18971203 4294967040
-1.4368212 0.97221446 -0.18472113 4294951168
-1.4367616 0.9719193 -0.17973019 4294951168
-1.4379632 0.96848524 -0.20496435 4294951168
-1.4379036 0.96819007 -0.19997343 4294951168
-1.4378438 0.96789491 -0.19498251 4294951168
-1.4377842 0.96759975 -0.18999158 4294951168
-1.4377246 0.96730471 -0.18500067 4294951168
-1.437665 0.96700954 -0.18000974 4294951168
-1.4389262 0.96387064 -0.21023484 4294951168
-1.4388666 0.96357548 -0.20524392 4294951168
-1.438807 0.96328032 -0.20025299 4294951168
-1.4387474 0.96298516 -0.19526207 4294951168
-1.4386878 0.96269 -0.19027114 4294951168
-1.438628 0.96239495 -0.18528023 4294951168
-1.4398894 0.95925605 -0.21550532 4294951168
-1.4398298 0.95896089 -0.21051438 4294951168
-1.43977 0.95866573 -0.20552346 4294951168
-1.4397104 0.95837057 -0.20053254 4294951168
-1.442719 0.94511724 -0.22632582 4294941184
-1.4426594 0.94482207 -0.2213349 4294951168
-1.4425998 0.94452691 -0.21634397 4294951168
-1.4464521 0.92606843 -0.23742589 4294941184
-1.4462731 0.92518306 -0.22245312 4294941184
-1.4663367 0.80871701 -0.16899174 4294951168
-1.4680841 0.79860234 -0.16455993 4294967040
-1.4680243 0.79830718 -0.159569 4294967040
-1.4689279 0.79339743 -0.15984854 4294967040
-1.4688683 0.79310226 -0.15485762 4294967040
-1.4698908 0.78878284 -0.16511902 4294967040
-1.4734449 0.76884878 -0.1612463 4294967040
-1.4733853 0.76855361 -0.15625538 4292280064
-1.4733257 0.76825845 -0.15126446 4292280064
-1.4770589 0.74920964 -0.16236453 4294967040
-1.4779623 0.74429989 -0.16264407 4294967040
-1.4779027 0.74400473 -0.15765315 4292280064
-1.477843 0.74370956 -0.15266223 4292280064
-1.4788656 0.73939013 -0.16292363 4294967040
-1.478806 0.73909497 -0.15793271 4292280064
-1.4787464 0.73879981 -0.15294179 4292280064
-1.4797692 0.73448038 -0.16320318 4292280064
-1.4797096 0.73418522 -0.15821226 4292280064
-1.47965 0.73389006 -0.15322134 4292280064
-1.4806726 0.72957063 -0.16348274 4292280064
-1.480613 0.72927547 -0.15849182 4292280064
-1.4805534 0.7289803 -0.1535009 4292280064
-1.4804938 0.72868526 -0.14850996 4292280064
-1.4890423 0.68656361 -0.18596242 4294951168
-1.4889827 0.68626845 -0.18097149 4294951168
-1.4889228 0.68597329 -0.17598057 4294967040
-1.4888632 0.68567812 -0.17098965 4294967040
-1.4888036 0.68538296 -0.16599871 4294967040
-1.4899457 0.68165386 -0.18624197 4294951168
-1.489886 0.6813587 -0.18125103 4294951168
-1.4898264 0.68106353 -0.17626011 4294967040
-1.4897668 0.68076837 -0.17126919 4294967040
-1.489707 0.68047321 -0.16627826 4294967040
-1.5001221 0.62882715 -0.20928074 4294951168
-1.5000625 0.62853211 -0.20428984 4294941184
-1.5000029 0.62823695 -0.1992989 4294941184
-1.4999433 0.62794179 -0.19430798 4294941184
-1.5012045 0.62480289 -0.22453308 4294951168
-1.5011449 0.62450773 -0.21954215 4294951168
-1.5010853 0.62421256 -0.21455123 4294951168
-1.5010257 0.6239174 -0.20956029 4294941184
-1.5009661 0.62362236 -0.20456938 4294941184
-1.5009062 0.6233272 -0.19957845 4294941184
-1.5021677 0.6201883 -0.22980355 4294951168
-1.5021081 0.61989313 -0.22481263 4294951168
-1.5020483 0.61959797 -0.21982171 4294951168
-1.5019886 0.61930281 -0.21483079 4294951168
-1.501929 0.61900765 -0.20983985 4294941184
-1.5018694 0.6187126 -0.20484895 4294941184
-1.5018098 0.61841744 -0.19985801 4294941184
-1.5124633 0.56795198 -0.26282421 4294951168
-1.5124037 0.56765682 -0.25783327 4294951168
-1.513665 0.56451803 -0.28805837 4294901760
-1.5136054 0.56422287 -0.28306744 4294901760
-1.5134861 0.56363255 -0.27308559 4294941184
-1.5134265 0.56333739 -0.26809466 4294951168
-1.5133667 0.56304222 -0.26310375 4294951168
-1.5145686 0.55960828 -0.28833792 4294901760
-1.5145087 0.55931312 -0.28334698 4294901760
-1.5144491 0.55901796 -0.27835608 4294901760
-1.5143299 0.55842763 -0.2683742 4294951168
-1.5154719 0.55469853 -0.28861746 4294901760
-1.5154123 0.55440336 -0.28362656 4294901760
-1.5153527 0.5541082 -0.27863562 4294941184
-1.697005 -0.43245637 -0.33981672 4294901760
-1.6979682 -0.43707097 -0.3450872 4294901760
-1.6979086 -0.43736613 -0.34009627 4294901760
-1.7024858 -0.46161973 -0.34648496 4294901760
-1.7024257 -0.4619149 -0.34149402 4294901760
-1.703449 -0.46623409 -0.35175544 4294901760
-1.7033889 -0.46652925 -0.3467645 4294901760
-1.7033293 -0.46682441 -0.34177357 4294901760
-1.7088096 -0.49598777 -0.34844184 4294901760
-1.70875 -0.49628294 -0.3434509 4294901760
-1.7133272 -0.52053654 -0.3498396 4294901760
-1.7132671 -0.5208317 -0.34484866 4294901760
-1.7142303 -0.52544653 -0.35011917 4294901760
-1.7141712 -0.5257417 -0.34512824 4294901760
-1.7187479 -0.54999506 -0.35151693 4294901760
-1.7186878 -0.55029023 -0.346526 4294901760
-1.7186286 -0.55058515 -0.34153506 4294901760
-1.719651 -0.55490506 -0.35179648 4294901760
-1.7195919 -0.55520022 -0.34680554 4294901760
-1.7195318 -0.55549514 -0.34181464 4294901760
-1.7250125 -0.5846585 -0.34848285 4294901760
-1.7249525 -0.58495343 -0.34349194 4294901760
-1.7295291 -0.60920727 -0.34988061 4294901760
-1.72947 -0.6095022 -0.3448897 4294901760
-1.7304332 -0.61411703 -0.35016018 4294901760
-1.7303731 -0.61441195 -0.34516925 4294901760
-1.7349498 -0.63866556 -0.35155794 4294901760
-1.7348907 -0.63896048 -0.346567 4294901760
-1.7358539 -0.64357555 -0.35183749 4294901760
-1.7357938 -0.64387047 -0.34684658 4294901760
-1.7402513 -0.6687144 -0.34325343 4294901760
-1.7412145 -0.673329 -0.34852389 4294901760
-1.7411549 -0.67362416 -0.34353298 4294901760
-1.7465756 -0.70308244 -0.34521028 4294901760
-1.746516 -0.7033776 -0.34021935 4294901760
-1.7519963 -0.73254097 -0.34688759 4294901760
-1.7519367 -0.73283613 -0.34189665 4294901760
-1.7564542 -0.7573849 -0.34329444 4294901760
-1.7573574 -0.76229465 -0.34357399 4294901760
-1.7572978 -0.76258981 -0.33858305 4294901760
-1.7618749 -0.78684342 -0.34497175 4294901760
-1.7618148 -0.78713858 -0.33998084 4294901760
-1.762778 -0.79175341 -0.34525132 4294901760
-1.7627184 -0.79204857 -0.34026039 4294901760
-1.7626588 -0.79234374 -0.33526948 4294901760
-1.7681391 -0.82150686 -0.34193772 4294901760
-1.7680795 -0.82180202 -0.33694679 4294901760
-1.7735002 -0.85126054 -0.33862412 4294901760
-1.7789209 -0.88071907 -0.34030142 4294901760
-1.7788613 -0.88101423 -0.33531049 4294901760
-1.7842224 -0.91076791 -0.33199689 4294901760
-1.7887394 -0.93531668 -0.33339465 4294901760
-1.7886798 -0.93561184 -0.32840374 4294901760
-1.789643 -0.9402262 -0.33367419 4294901760
-1.789583 -0.94052136 -0.32868329 4294901760
-1.7940409 -0.96536553 -0.32509014 4294901760
-1.7950037 -0.96997988 -0.33036059 4294901760
-1.7949445 -0.97027504 -0.32536969 4294901760
-1.8003652 -0.99973357 -0.32704699 4294901760
-1.8003051 -1.0000287 -0.32205606 4294901760
-1.8057258 -1.0294873 -0.32373339 4294901760
-1.8056667 -1.0297824 -0.31874245 4294901760
-1.8110874 -1.0592409 -0.32041979 4294901760
-1.8110273 -1.0595361 -0.31542885 4294901760
-1.8136785 -1.0745605 -0.31127658 4294901760
-1.8147008 -1.07888 -0.321538 4294901760
-1.8146412 -1.0791751 -0.31654707 4294901760
-1.816448 -1.0889946 -0.31710619 4294901760
-1.8173516 -1.0939044 -0.31738573 4294901760
-1.817292 -1.0941995 -0.3123948 4294901760
-1.8182552 -1.0988141 -0.31766528 4294901760
-1.8208463 -1.1141335 -0.30852208 4294901760
-1.3799374 1.3145419 -0.21023837 4294967040
-1.3836706 1.2954932 -0.22133844 4294967040
-1.3874037 1.2764446 -0.2324385 4294951168
-1.3873441 1.2761494 -0.22744757 4294951168
-1.3912561 1.2579862 -0.25352043 4294901760
-1.3911963 1.257691 -0.24852949 4294901760
-1.3911366 1.2573959 -0.24353856 4294941184
-1.391077 1.2571007 -0.23854764 4294941184
-1.3949294 1.2386423 -0.25962955 4294901760
-1.4253573 1.0608983 -0.16959541 4294967040
-1.4289711 1.0412593 -0.17071362 4292280064
-1.4325848 1.0216203 -0.17183183 4284743424
-1.4325252 1.0213251 -0.16684091 4278751232
-1.4362583 1.0022764 -0.17794096 4292280064
-1.4361987 1.0019813 -0.17295004 4284743424
-1.4361391 1.0016861 -0.16795912 4284743424
-1.4399915 0.98322755 -0.18904102 4294967040
-1.4399316 0.98293251 -0.18405011 4294967040
-1.439872 0.98263735 -0.17905918 4294967040
-1.4398124 0.98234218 -0.17406826 4294967040
-1.443784 0.96447402 -0.20513201 4294951168
-1.4437244 0.96417886 -0.20014109 4294951168
-1.4436648 0.9638837 -0.19515017 4294951168
-1.4436052 0.96358854 -0.19015923 4294951168
-1.4435456 0.96329349 -0.18516833 4294951168
-1.4445682 0.95897394 -0.19542973 4294951168
-1.4445086 0.95867878 -0.19043879 4294951168
-1.4444489 0.95838374 -0.18544789 4294951168
-1.4457698 0.95554012 -0.22066389 4294951168
-1.4457102 0.95524496 -0.21567297 4294951168
-1.4456506 0.9549498 -0.21068203 4294951168
-1.445591 0.95465463 -0.20569111 4294951168
-1.4455314 0.95435947 -0.20070019 4294951168
-1.4454718 0.95406431 -0.19570927 4294951168
-1.446733 0.95092553 -0.22593437 4294941184
-1.4466734 0.95063037 -0.22094345 4294951168
-1.4466138 0.9503352 -0.21595252 4294951168
-1.4465542 0.95004004 -0.21096158 4294951168
-1.4464943 0.94974488 -0.20597066 4294951168
-1.4464347 0.94944972 -0.20097974 4294951168
-1.4463751 0.94915456 -0.19598882 4294941184
-1.4476364 0.94601578 -0.22621393 4294941184
-1.4475768 0.94572061 -0.221223 4294951168
-1.4474576 0.94513029 -0.21124114 4294951168
-1.4473979 0.94483513 -0.20625022 4294951168
-1.4473383 0.94453996 -0.2012593 4294951168
-1.4513099 0.92667192 -0.23232305 4294941184
-1.4512503 0.92637676 -0.22733214 4294941184
-1.4668562 0.83475465 -0.17746393 4294951168
-1.4711945 0.80932039 -0.16388892 4294951168
-1.4747486 0.78938621 -0.16001619 4294967040
-1.474689 0.78909105 -0.15502527 4294967040
-1.4746294 0.78879589 -0.15003435 4294967040
-1.4756522 0.78447646 -0.16029574 4294967040
-1.4755926 0.7841813 -0.15530483 4294967040
-1.4755328 0.78388613 -0.15031391 4294967040
-1.476496 0.77927166 -0.15558438 4294967040
-1.4764364 0.7789765 -0.15059346 4294967040
-1.4783027 0.76945215 -0.15614349 4292280064
-1.4782431 0.76915699 -0.15115257 4292280064
-1.4781835 0.76886195 -0.14616163 4292280064
-1.4819167 0.74981302 -0.15726171 4292280064
-1.4818571 0.74951786 -0.15227079 4292280064
-1.4817975 0.74922282 -0.14727986 4292280064
-1.48559 0.73046917 -0.16337083 4294967040
-1.4855304 0.73017401 -0.15837991 4292280064
-1.4854708 0.72987884 -0.15338901 4292280064
-1.4854112 0.7295838 -0.14839807 4292280064
-1.4864936 0.72555941 -0.16365039 4294967040
-1.486434 0.72526425 -0.15865947 4292280064
-1.4863741 0.72496909 -0.15366855 4292280064
-1.4957068 0.67734748 -0.18141869 4294951168
-1.4956472 0.67705232 -0.17642777 4294967040
-1.4955876 0.67675716 -0.17143685 4294967040
-1.49667 0.67273289 -0.18668918 4294951168
-1.4966104 0.67243773 -0.18169825 4294951168
-1.4965508 0.67214257 -0.17670733 4294967040
-1.496491 0.6718474 -0.17171641 4294967040
-1.497633 0.6681183 -0.19195965 4294951168
-1.4975734 0.66782314 -0.18696873 4294951168
-1.4975138 0.66752797 -0.18197779 4294951168
-1.4974542 0.66723281 -0.17698687 4294951168
-1.4973946 0.66693765 -0.17199595 4294951168
-1.4985366 0.66320866 -0.19223921 4294951168
-1.498477 0.6629135 -0.18724829 4294951168
-1.4984171 0.66261834 -0.18225735 4294951168
-1.4983575 0.66232318 -0.17726643 4294951168
-1.5080481 0.61647218 -0.23496214 4294951168
-1.5079885 0.61617702 -0.2299712 4294951168
-1.5079288 0.61588186 -0.22498028 4294951168
-1.5078692 0.6155867 -0.21998936 4294951168
-1.5078096 0.61529154 -0.21499844 4294941184
-1.50775 0.61499637 -0.2100075 4294941184
-1.5076902 0.61470133 -0.2050166 4294941184
-1.5076306 0.61440617 -0.20002566 4294941184
-1.5089517 0.61156243 -0.23524168 4294951168
-1.5088921 0.61126727 -0.23025075 4294951168
-1.5088322 0.61097211 -0.22525984 4294951168
-1.5087726 0.61067694 -0.22026891 4294951168
-1.508713 0.61038178 -0.21527798 4294941184
-1.5086534 0.61008662 -0.21028705 4294941184
-1.5085938 0.60979158 -0.20529614 4294941184
-1.5099146 0.60694796 -0.24051216 4294951168
-1.509855 0.6066528 -0.23552124 4294951168
-1.5097954 0.60635763 -0.23053031 4294951168
-1.5097358 0.60606247 -0.22553939 4294951168
-1.5096762 0.60576731 -0.22054847 4294941184
-1.5096164 0.60547215 -0.21555755 4294941184
-1.5095568 0.60517699 -0.21056661 4294941184
-1.5108778 0.60233337 -0.24578264 4294951168
-1.510818 0.6020382 -0.24079171 4294951168
-1.5107584 0.60174304 -0.2358008 4294951168
-1.5106988 0.60144788 -0.23080987 4294951168
-1.5204489 0.55589217 -0.29349649 4294901760
-1.5202105 0.55471152 -0.27353281 4294951168
-1.5201509 0.55441636 -0.26854187 4294951168
-1.5213525 0.55098253 -0.29377607 4294901760
-1.5212927 0.55068737 -0.28878513 4294901760
-1.5212331 0.55039221 -0.28379419 4294901760
-1.5211735 0.55009705 -0.27880329 4294941184
-1.5211139 0.54980189 -0.27381235 4294951168
-1.5222559 0.54607278 -0.29405561 4294901760
-1.5221963 0.54577762 -0.28906468 4294901760
-1.5221367 0.54548246 -0.28407374 4294901760
-1.5220771 0.54518729 -0.27908283 4294941184
-1.7010791 -0.4263531 -0.34441617 4294901760
-1.7019823 -0.43126285 -0.34469575 4294901760
-1.7065589 -0.45551622 -0.35108444 4294901760
-1.7064998 -0.45581138 -0.34609351 4294901760
-1.7064397 -0.45610654 -0.34110257 4294901760
-1.707463 -0.46042621 -0.35136399 4294901760
-1.7074029 -0.46072137 -0.34637305 4294901760
-1.7119205 -0.4852699 -0.34777081 4294901760
-1.7118604 -0.48556507 -0.3427799 4294901760
-1.7128236 -0.4901799 -0.34805039 4294901760
-1.712764 -0.49047506 -0.34305945 4294901760
-1.7173412 -0.51472843 -0.34944814 4294901760
-1.7172811 -0.51502359 -0.34445721 4294901760
-1.7227619 -0.54418719 -0.35112548 4294901760
-1.7281225 -0.57394063 -0.34781185 4294901760
-1.7290261 -0.57885039 -0.34809139 4294901760
-1.7335432 -0.60339916 -0.34948918 4294901760
-1.733484 -0.60369408 -0.34449825 4294901760
-1.7389638 -0.63285768 -0.35116649 4294901760
-1.7389047 -0.6331526 -0.34617558 4294901760
-1.7442653 -0.66290629 -0.34286195 4294901760
-1.7452285 -0.66752088 -0.34813246 4294901760
-1.7506492 -0.6969794 -0.34980977 4294901760
-1.7505896 -0.69727457 -0.34481883 4294901760
-1.75053 -0.69756973 -0.33982792 4294901760
-1.7560103 -0.72673309 -0.34649613 4294901760
-1.7559507 -0.72702825 -0.34150523 4294901760
-1.7613714 -0.75648654 -0.34318253 4294901760
-1.7613118 -0.7567817 -0.33819163 4294901760
-1.7667921 -0.78594506 -0.34485987 4294901760
-1.7667325 -0.78624022 -0.33986893 4294901760
-1.7666728 -0.78653538 -0.33487803 4294901760
-1.7721531 -0.81569874 -0.34154627 4294901760
-1.7720935 -0.81599391 -0.33655533 4294901760
-1.7766106 -0.84054267 -0.33795309 4294901760
-1.7775142 -0.84545243 -0.33823264 4294901760
-1.7820313 -0.8700012 -0.33963042 4294901760
-1.7819717 -0.87029636 -0.33463949 4294901760
-1.7829349 -0.87491071 -0.33990997 4294901760
-1.7828748 -0.87520587 -0.33491904 4294901760
-1.788296 -0.90466464 -0.33659637 4294901760
-1.7882364 -0.9049598 -0.33160543 4294901760
-1.7927535 -0.92950833 -0.33300319 4294901760
-1.7926939 -0.92980349 -0.32801229 4294901760
-1.7990177 -0.96417201 -0.32996917 4294901760
-1.7989585 -0.96446717 -0.32497823 4294901760
-1.8034756 -0.9890157 -0.32637599 4294901760
-1.8043792 -0.99392545 -0.32665557 4294901760
-1.8043191 -0.99422061 -0.32166463 4294901760
-1.8097398 -1.0236791 -0.32334194 4294901760
-1.8141978 -1.0485231 -0.31974876 4294901760
-1.8151014 -1.0534328 -0.32002831 4294901760
-1.8196185 -1.0779816 -0.32142609 4294901760
-1.8195589 -1.0782768 -0.31643516 4294901760
-1.8194988 -1.0785719 -0.31144425 4294901760
-1.820462 -1.0831865 -0.3167147 4294901760
-1.8231723 -1.0979158 -0.3175534 4294901760
-1.8231132 -1.0982109 -0.31256247 4294901760
-1.8258231 -1.11294 -0.3134011 4294901760
-1.8257635 -1.1132351 -0.3084102 4294901760
-1.3886473 1.2966869 -0.22621746 4294951168
-1.3923805 1.2776381 -0.23731753 4294941184
-1.3923209 1.2773429 -0.2323266 4294951168
-1.3961732 1.2588847 -0.25340852 4294901760
-1.3961136 1.2585895 -0.24841759 4294901760
-1.396054 1.2582943 -0.24342667 4294941184
-1.3971362 1.25427 -0.258679 4294901760
-1.3970766 1.2539749 -0.25368807 4294901760
-1.4302745 1.0617967 -0.16948351 4294967040
-1.4338286 1.0418625 -0.16561081 4284743424
-1.4375021 1.0225186 -0.17171994 4284743424
-1.4374425 1.0222235 -0.16672902 4278751232
-1.4411755 1.0031748 -0.17782907 4292280064
-1.4411159 1.0028796 -0.17283815 4284743424
-1.4410563 1.0025845 -0.16784723 4284743424
-1.4420791 0.99826503 -0.17810863 4292280064
-1.4420192 0.99796987 -0.17311771 4292280064
-1.4419596 0.9976747 -0.16812679 4284743424
-1.443042 0.99365044 -0.18337911 4294967040
-1.4429228 0.99306011 -0.17339726 4292280064
-1.4428632 0.99276495 -0.16840634 4292280064
-1.4449086 0.98412597 -0.18892913 4294967040
-1.4447894 0.98353577 -0.17894728 4294967040
-1.4447296 0.9832406 -0.17395636 4294967040
-1.4487014 0.96537244 -0.20502011 4294951168
-1.4486418 0.96507728 -0.20002919 4294951168
-1.4485819 0.96478212 -0.19503827 4294951168
-1.4485223 0.96448696 -0.19004734 4294951168
-1.4484627 0.96419191 -0.18505643 4294951168
-1.4524939 0.94661903 -0.2211111 4294941184
-1.4524343 0.94632387 -0.21612018 4294951168
-1.4523747 0.94602871 -0.21112925 4294951168
-1.4523151 0.94573355 -0.20613833 4294951168
-1.4522555 0.94543839 -0.20114741 4294951168
-1.4534571 0.94200444 -0.22638159 4294941184
-1.4533975 0.94170928 -0.22139066 4294941184
-1.4533379 0.94141412 -0.21639973 4294951168
-1.4532781 0.94111896 -0.21140879 4294951168
-1.4532185 0.94082379 -0.20641787 4294951168
-1.4542413 0.93650436 -0.21667929 4294951168
-1.4562271 0.92757034 -0.23221117 4294941184
-1.4561675 0.92727518 -0.22722024 4294941184
-1.4571304 0.92266059 -0.23249072 4294941184
-1.4570708 0.92236543 -0.2274998 4294941184
-1.4726171 0.83044815 -0.17264065 4294951168
-1.4735804 0.82583356 -0.17791115 4294941184
-1.4734612 0.82524323 -0.16792929 4294951168
-1.4761117 0.81021881 -0.16377702 4294951168
-1.476052 0.80992365 -0.15878609 4294951168
-1.4770153 0.80530906 -0.16405658 4294951168
-1.479666 0.79028463 -0.1599043 4294967040
-1.4796062 0.78998947 -0.15491338 4294967040
-1.4795465 0.78969431 -0.14992246 4294967040
-1.4794869 0.78939927 -0.14493152 4294967040
-1.4823167 0.77526033 -0.15575205 4294967040
-1.4822569 0.77496517 -0.15076113 4292280064
-1.4832201 0.77035058 -0.15603159 4294967040
-1.4831605 0.77005541 -0.15104067 4292280064
-1.4831007 0.76976037 -0.14604974 4292280064
-1.4841235 0.76544082 -0.15631115 4294967040
-1.4840639 0.76514566 -0.15132023 4292280064
-1.4867742 0.75041628 -0.1521589 4292280064
-1.4867146 0.75012124 -0.14716797 4292280064
-1.486655 0.74982607 -0.14217705 4292280064
-1.4904478 0.73107243 -0.15826802 4292280064
-1.4903879 0.73077726 -0.15327711 4292280064
-1.4903283 0.73048222 -0.14828618 4292280064
-1.4902687 0.73018706 -0.14329526 4292280064
-1.4923141 0.7215482 -0.16381805 4294967040
-1.4922545 0.72125304 -0.15882713 4292280064
-1.4921949 0.72095788 -0.15383622 4292280064
-1.4931581 0.71634328 -0.15910667 4292280064
-1.4930983 0.71604812 -0.15411577 4292280064
-1.4941211 0.71172869 -0.16437715 4294967040
-1.4940615 0.71143353 -0.15938623 4292280064
-1.4940019 0.71113837 -0.15439531 4292280064
-1.4939423 0.71084332 -0.14940438 4292280064
-1.5043571 0.65919733 -0.19240686 4294951168
-1.5042975 0.65890217 -0.18741594 4294951168
-1.5042379 0.65860701 -0.18242501 4294951168
-1.5041783 0.65831184 -0.17743409 4294951168
-1.5053203 0.65458274 -0.19767734 4294951168
-1.5052607 0.65428758 -0.19268642 4294951168
-1.5052011 0.65399241 -0.1876955 4294951168
-1.5051413 0.65369725 -0.18270457 4294951168
-1.5050817 0.65340209 -0.17771365 4294951168
-1.5062237 0.64967299 -0.19795689 4294951168
-1.5061641 0.64937782 -0.19296597 4294951168
-1.5061045 0.64908266 -0.18797505 4294951168
-1.5060449 0.6487875 -0.18298411 4294951168
-1.5155563 0.6020512 -0.22570705 4294951168
-1.5154967 0.60175604 -0.22071612 4294941184
-1.5154371 0.60146087 -0.2157252 4294941184
-1.5153775 0.60116571 -0.21073426 4294941184
-1.5167582 0.59861726 -0.25094122 4294951168
-1.5166984 0.59832209 -0.24595031 4294951168
-1.5166388 0.59802693 -0.24095938 4294951168
-1.5165792 0.59773177 -0.23596846 4294951168
-1.5165195 0.59743661 -0.23097752 4294951168
-1.5164599 0.59714144 -0.2259866 4294941184
-1.5164003 0.59684628 -0.22099568 4294941184
-1.5177212 0.59400254 -0.2562117 4294951168
-1.5176616 0.5937075 -0.25122079 4294951168
-1.517602 0.59341234 -0.24622986 4294951168
-1.5175424 0.59311718 -0.24123892 4294951168
-1.5174825 0.59282202 -0.23624802 4294951168
-1.5174229 0.59252685 -0.23125708 4294941184
-1.5173633 0.59223169 -0.22626615 4294941184
-1.5173037 0.59193653 -0.22127524 4294941184
-1.5186245 0.58909279 -0.25649127 4294951168
-1.5185649 0.58879775 -0.25150034 4294951168
-1.5185053 0.58850259 -0.2465094 4294951168
-1.5184457 0.58820742 -0.24151848 4294951168
-1.5183861 0.58791226 -0.23652756 4294941184
-1.5183265 0.5876171 -0.23153663 4294941184
-1.5280766 0.54206151 -0.29422328 4294901760
-1.528017 0.54176635 -0.28923234 4294901760
-1.5279572 0.54147118 -0.28424141 4294901760
-1.5278976 0.54117602 -0.2792505 4294941184
-1.52898 0.53715175 -0.29450282 4294901760
-1.5289204 0.53685659 -0.28951189 4294901760
-1.5288608 0.53656143 -0.28452095 4294901760
-1.5298834 0.532242 -0.29478237 4294901760
-1.5298238 0.53194684 -0.28979144 4294901760
-1.5297642 0.53165168 -0.28480053 4294901760
-1.530787 0.52733225 -0.29506192 4294901760
-1.5307274 0.52703708 -0.29007101 4294901760
-1.5306675 0.52674192 -0.28508008 4294901760
-1.7050927 -0.42054474 -0.34402475 4294901760
-1.710573 -0.4497081 -0.35069299 4294901760
-1.7105134 -0.45000327 -0.34570205 4294901760
-1.7104537 -0.45029843 -0.34071115 4294901760
-1.715934 -0.47946179 -0.34737939 4294901760
-1.7158744 -0.47975695 -0.34238845 4294901760
-1.7213547 -0.50892031 -0.34905669 4294901760
-1.7212951 -0.50921547 -0.34406579 4294901760
-1.7267754 -0.5383786 -0.35073403 4294901760
-1.7267158 -0.53867376 -0.34574309 4294901760
-1.7266562 -0.53896868 -0.34075218 4294901760
-1.7276189 -0.54358375 -0.34602267 4294901760
-1.7275598 -0.54387867 -0.34103173 4294901760
-1.7321365 -0.56813228 -0.34742039 4294901760
-1.7330396 -0.57304204 -0.34769997 4294901760
-1.7375572 -0.5975908 -0.34909773 4294901760
-1.7374976 -0.59788573 -0.34410679 4294901760
-1.7429779 -0.62704933 -0.35077503 4294901760
-1.7429183 -0.62734425 -0.34578413 4294901760
-1.743881 -0.63195908 -0.35105461 4294901760
-1.7492425 -0.66171253 -0.34774101 4294901760
-1.7537596 -0.6862613 -0.34913877 4294901760
-1.7537 -0.68655646 -0.34414786 4294901760
-1.7536404 -0.68685162 -0.33915693 4294901760
-1.7546632 -0.69117081 -0.34941831 4294901760
-1.7546031 -0.69146597 -0.34442741 4294901760
-1.754544 -0.69176114 -0.33943647 4294901760
-1.7591207 -0.71601498 -0.34582517 4294901760
-1.7590611 -0.71631014 -0.34083423 4294901760
-1.7600238 -0.7209245 -0.34610471 4294901760
-1.7599647 -0.72121966 -0.34111378 4294901760
-1.7644818 -0.74576843 -0.34251153 4294901760
-1.7653854 -0.75067818 -0.34279108 4294901760
-1.7699025 -0.77522695 -0.34418887 4294901760
-1.7698429 -0.77552211 -0.33919793 4294901760
-1.7697828 -0.77581728 -0.334207 4294901760
-1.7708061 -0.78013694 -0.34446841 4294901760
-1.770746 -0.78043211 -0.33947751 4294901760
-1.7706869 -0.78072727 -0.33448657 4294901760
-1.7752635 -0.80498064 -0.34087527 4294901760
-1.7752035 -0.8052758 -0.33588433 4294901760
-1.7761667 -0.80989039 -0.34115481 4294901760
-1.7761075 -0.81018555 -0.33616388 4294901760
-1.7806242 -0.83473432 -0.33756167 4294901760
-1.7860448 -0.86419261 -0.33923897 4294901760
-1.7859857 -0.86448777 -0.33424804 4294901760
-1.7913463 -0.89424145 -0.33093444 4294901760
-1.7923095 -0.89885628 -0.33620492 4294901760
-1.7922499 -0.89915144 -0.33121398 4294901760
-1.796767 -0.92370021 -0.33261177 4294901760
-1.8021286 -0.9534539 -0.32929814 4294901760
-1.8030317 -0.95836341 -0.32957768 4294901760
-1.8029721 -0.95865858 -0.32458678 4294901760
-1.8074892 -0.98320735 -0.32598454 4294901760
-1.8083928 -0.9881171 -0.32626408 4294901760
-1.8137538 -1.0178708 -0.32295048 4294901760
-1.8182714 -1.0424196 -0.32434824 4294901760
-1.8182113 -1.0427147 -0.31935734 4294901760
-1.824476 -1.0773782 -0.31632328 4294901760
-1.8244164 -1.0776733 -0.31133235 4294901760
-1.8298366 -1.1071318 -0.31300968 4294901760
-1.8297775 -1.107427 -0.30801874 4294941184
-1.3789308 1.3752559 -0.20665994 4294941184
-1.3935649 1.2975854 -0.22610557 4294951168
-1.3982015 1.2736269 -0.23748519 4294951168
-1.401031 1.259488 -0.24830569 4294901760
-1.4009714 1.2591928 -0.24331477 4294941184
-1.4020538 1.2551686 -0.25856709 4294901760
-1.4351919 1.0626951 -0.16937162 4294967040
-1.4423599 1.023122 -0.16661711 4278751232
-1.4460928 1.0040733 -0.17771718 4292280064
-1.4460332 1.0037781 -0.17272626 4284743424
-1.4459736 1.0034829 -0.16773534 4284743424
-1.4489226 0.98993421 -0.18853767 4294967040
-1.448863 0.98963916 -0.18354677 4294967040
-1.4488032 0.989344 -0.17855583 4294967040
-1.4487436 0.98904884 -0.17356491 4292280064
-1.449826 0.98502445 -0.18881723 4294967040
-1.4497664 0.98472941 -0.18382633 4294967040
-1.4507892 0.98040986 -0.19408771 4294967040
-1.4506698 0.97981966 -0.18410587 4294967040
-1.4506102 0.97952449 -0.17911494 4294967040
-1.4536188 0.96627092 -0.20490822 4294951168
-1.4535592 0.96597576 -0.1999173 4294951168
-1.4534996 0.9656806 -0.19492638 4294951168
-1.4534397 0.96538544 -0.18993545 4294951168
-1.4533801 0.96509039 -0.18494454 4294951168
-1.4571729 0.94633687 -0.2010355 4294951168
-1.4583745 0.94290292 -0.22626969 4294941184
-1.4583149 0.94260776 -0.22127876 4294941184
-1.4582553 0.9423126 -0.21628784 4294941184
-1.4581957 0.94201744 -0.2112969 4294951168
-1.4581361 0.94172227 -0.20630598 4294951168
-1.4600623 0.93249309 -0.21684694 4294941184
-1.4619882 0.92326391 -0.22738791 4294941184
-1.4792223 0.8209368 -0.16310602 4294951168
-1.4800661 0.81573188 -0.15839463 4294951168
-1.481873 0.80591238 -0.15895374 4294951168
-1.4844642 0.79059279 -0.14981055 4294967040
-1.4844043 0.79029775 -0.14481962 4294967040
-1.4854271 0.7859782 -0.15508103 4294967040
-1.4880183 0.77065885 -0.14593783 4292280064
-1.4879587 0.77036369 -0.14094691 4292280064
-1.4889812 0.76604414 -0.15120833 4292280064
-1.4889216 0.7657491 -0.14621739 4292280064
-1.4899445 0.76142955 -0.15647879 4294967040
-1.4898849 0.76113439 -0.15148787 4292280064
-1.489825 0.76083934 -0.14649694 4292280064
-1.4908478 0.75651979 -0.15675835 4294967040
-1.4907882 0.75622463 -0.15176743 4292280064
-1.4907286 0.75592959 -0.1467765 4292280064
-1.4916916 0.75131476 -0.15204699 4292280064
-1.491632 0.75101972 -0.14705606 4292280064
-1.4915724 0.75072455 -0.14206514 4292280064
-1.4953055 0.73167574 -0.15316521 4292280064
-1.4951861 0.73108554 -0.14318335 4292280064
-1.4951265 0.73079038 -0.13819243 4292280064
-1.4998822 0.70742226 -0.15955389 4292280064
-1.4998226 0.70712709 -0.15456297 4292280064
-1.499763 0.70683205 -0.14957203 4292280064
-1.500905 0.70310283 -0.16981529 4294967040
-1.5008454 0.70280766 -0.16482435 4294967040
-1.5007858 0.7025125 -0.15983343 4294967040
-1.5007262 0.70221734 -0.15484251 4292280064
-1.5018084 0.69819307 -0.17009485 4294967040
-1.5017488 0.69789791 -0.16510391 4294967040
-1.5016892 0.69760275 -0.16011299 4294967040
-1.5016296 0.69730759 -0.15512207 4294967040
-1.502712 0.69328332 -0.17037439 4294967040
-1.5121043 0.64595687 -0.20311548 4294951168
-1.5120447 0.64566171 -0.19812454 4294951168
-1.5119851 0.64536655 -0.19313362 4294951168
-1.5119255 0.64507139 -0.1881427 4294951168
-1.5118656 0.64477623 -0.18315177 4294951168
-1.5130076 0.64104718 -0.20339504 4294951168
-1.512948 0.64075202 -0.1984041 4294951168
-1.5128884 0.64045686 -0.19341318 4294951168
-1.5128288 0.64016169 -0.18842226 4294951168
-1.5127692 0.63986653 -0.18343133 4294951168
-1.5139112 0.63613743 -0.20367458 4294951168
-1.5138514 0.63584226 -0.19868365 4294951168
-1.5137918 0.6355471 -0.19369273 4294951168
-1.5137322 0.63525194 -0.18870181 4294951168
-1.5245051 0.58537668 -0.26164985 4294951168
-1.5244455 0.58508152 -0.25665891 4294951168
-1.5243859 0.58478647 -0.25166798 4294951168
-1.5243263 0.58449131 -0.24667707 4294951168
-1.5242665 0.58419615 -0.24168614 4294951168
-1.5242069 0.58390099 -0.23669522 4294941184
-1.5241473 0.58360583 -0.23170428 4294941184
-1.5254683 0.58076209 -0.26692033 4294951168
-1.5254085 0.58046693 -0.26192939 4294951168
-1.5253489 0.58017176 -0.25693846 4294951168
-1.5252893 0.57987672 -0.25194755 4294951168
-1.5252297 0.57958156 -0.24695662 4294951168
-1.5251701 0.5792864 -0.24196568 4294951168
-1.5264313 0.5761475 -0.27219081 4294941184
-1.5263717 0.57585233 -0.26719987 4294951168
-1.5263121 0.57555717 -0.26220894 4294951168
-1.5262525 0.57526201 -0.25721803 4294951168
-1.5260735 0.57437664 -0.24224524 4294941184
-1.5366077 0.52332097 -0.29522958 4294901760
-1.5365481 0.52302581 -0.29023865 4294901760
-1.5375113 0.51841122 -0.29550913 4294901760
-1.5374515 0.51811606 -0.29051822 4294901760
-1.7091067 -0.41473663 -0.34363329 4294901760
-1.714587 -0.44389999 -0.35030153 4294901760
-1.7145274 -0.44419515 -0.3453106 4294901760
-1.7144678 -0.44449031 -0.34031969 4294901760
-1.7199481 -0.47365344 -0.34698793 4294901760
-1.7198884 -0.4739486 -0.341997 4294901760
-1.7253687 -0.50311196 -0.34866524 4294901760
-1.7253091 -0.50340712 -0.34367433 4294901760
-1.7307894 -0.53257072 -0.35034257 4294901760
-1.7307298 -0.53286588 -0.34535164 4294901760
-1.7362101 -0.56202924 -0.35201988 4294901760
-1.7361505 -0.5623244 -0.34702894 4294901760
-1.7415712 -0.59178269 -0.34870628 4294901760
-1.7415116 -0.59207761 -0.34371537 4294901760
-1.7424743 -0.59669244 -0.34898582 4294901760
-1.7469919 -0.62124121 -0.35038358 4294901760
-1.7469323 -0.62153614 -0.34539267 4294901760
-1.747895 -0.62615097 -0.35066313 4294901760
-1.7478359 -0.62644589 -0.34567222 4294901760
-1.752353 -0.65099466 -0.34706998 4294901760
-1.7522933 -0.65128982 -0.34207907 4294901760
-1.7532566 -0.65590441 -0.34734955 4294901760
-1.7531965 -0.65619957 -0.34235862 4294901760
-1.7577736 -0.68045318 -0.34874731 4294901760
-1.757714 -0.68074834 -0.34375638 4294901760
-1.757654 -0.68104351 -0.33876547 4294901760
-1.7631347 -0.71020663 -0.34543371 4294901760
-1.7630746 -0.71050179 -0.34044278 4294901760
-1.7684953 -0.73996031 -0.34212008 4294901760
-1.773916 -0.76941884 -0.34379742 4294901760
-1.7738569 -0.769714 -0.33880648 4294901760
-1.7792776 -0.79917276 -0.34048381 4294901760
-1.7792175 -0.79946792 -0.33549288 4294901760
-1.7846982 -0.82863104 -0.34216115 4294901760
-1.7846382 -0.82892621 -0.33717021 4294901760
-1.7856014 -0.8335408 -0.34244069 4294901760
-1.7900589 -0.85838473 -0.33884752 4294901760
-1.7899997 -0.85867989 -0.33385661 4294901760
-1.7953603 -0.88843358 -0.33054298 4294901760
-1.7963235 -0.89304793 -0.33581346 4294901760
-1.800781 -0.91789186 -0.33222032 4294901760
-1.8007219 -0.91818702 -0.32722938 4294901760
-1.8061426 -0.94764555 -0.32890669 4294901760
-1.8115032 -0.97739923 -0.32559308 4294901760
-1.8169239 -1.0068578 -0.32727042 4294901760
-1.8168643 -1.0071529 -0.32227948 4294901760
-1.8178275 -1.0117675 -0.32754996 4294901760
-1.8177679 -1.0120627 -0.32255903 4294901760
-1.8222854 -1.0366114 -0.32395679 4294901760
-1.8222253 -1.0369066 -0.31896588 4294901760
-1.827646 -1.0663651 -0.32064319 4294901760
-1.8275864 -1.0666603 -0.31565228 4294901760
-1.8285496 -1.0712749 -0.32092273 4294901760
-1.82849 -1.07157 -0.31593183 4294901760
-1.8330071 -1.0961188 -0.31732959 4294901760
-1.8329475 -1.096414 -0.31233868 4294901760
-1.8338506 -1.1013235 -0.31261823 4294901760
-1.8337915 -1.1016186 -0.30762729 4294941184
-1.3875215 1.3568105 -0.21265718 4294941184
-1.3948088 1.3178277 -0.21988453 4294951168
-1.3957717 1.3132131 -0.22515501 4294951168
-1.3994453 1.2938691 -0.23126414 4294951168
-1.4031782 1.2748204 -0.24236421 4294901760
-1.4031186 1.2745253 -0.23737329 4294941184
-1.4069114 1.2557719 -0.25346428 4294901760
-1.4068518 1.2554767 -0.24847335 4294901760
-1.4067922 1.2551816 -0.24348243 4294941184
-1.4401093 1.0635936 -0.16925973 4294967040
-1.4436634 1.0436594 -0.16538702 4278751232
-1.4464333 1.0292253 -0.17121659 4292280064
-1.4463737 1.0289302 -0.16622567 4278751232
-1.4473367 1.0243156 -0.17149614 4284743424
-1.4472771 1.0240204 -0.16650522 4278751232
-1.4509506 1.0046766 -0.17261437 4284743424
-1.4508908 1.0043814 -0.16762345 4284743424
-1.4546835 0.98562789 -0.18371443 4294967040
-1.4546239 0.98533273 -0.1787235 4294967040
-1.4545643 0.98503757 -0.17373258 4294967040
-1.4556468 0.98101318 -0.18898489 4294967040
-1.4554677 0.98012781 -0.17401212 4294967040
-1.4566693 0.97669375 -0.1992463 4294951168
-1.4566097 0.97639859 -0.19425538 4294951168
-1.4565501 0.97610343 -0.18926445 4294951168
-1.4564905 0.97580838 -0.18427354 4294951168
-1.4564309 0.97551322 -0.17928261 4294951168
-1.4575729 0.971784 -0.19952585 4294951168
-1.4575133 0.97148883 -0.19453493 4294951168
-1.4574535 0.97119367 -0.18954399 4294951168
-1.4573939 0.97089863 -0.18455309 4294951168
-1.4573343 0.97060347 -0.17956215 4294951168
-1.4585955 0.96746457 -0.20978725 4294951168
-1.4585359 0.9671694 -0.20479633 4294951168
-1.4584763 0.96687424 -0.19980541 4294951168
-1.4584167 0.96657908 -0.19481449 4294951168
-1.4583571 0.96628392 -0.18982355 4294951168
-1.4582975 0.96598887 -0.18483265 4294951168
-1.4632916 0.9438014 -0.22615778 4294941184
-1.463232 0.94350624 -0.22116686 4294941184
-1.4631724 0.94321108 -0.21617594 4294941184
-1.4631128 0.94291592 -0.21118501 4294941184
-1.4630532 0.94262075 -0.20619409 4294951168
-1.4867306 0.80651569 -0.15385093 4294951168
-1.486671 0.80622053 -0.14886001 4294967040
-1.4876339 0.80160594 -0.15413049 4294967040
-1.4875743 0.80131078 -0.14913957 4294967040
-1.4884779 0.79640102 -0.14941911 4294967040
-1.4903443 0.78687668 -0.15496914 4294967040
-1.4902847 0.78658152 -0.14997822 4294967040
-1.4902251 0.78628647 -0.14498729 4294967040
-1.4938388 0.76664758 -0.1461055 4292280064
-1.4937792 0.76635242 -0.14111458 4292280064
-1.496609 0.75221324 -0.1519351 4292280064
-1.4965491 0.7519182 -0.14694417 4292280064
-1.4964895 0.75162303 -0.14195324 4292280064
-1.4964299 0.75132787 -0.13696232 4292280064
-1.4975123 0.74730349 -0.15221465 4292280064
-1.4974527 0.74700844 -0.14722371 4292280064
-1.4984157 0.74239373 -0.15249421 4292280064
-1.4982965 0.74180353 -0.14251235 4292280064
-1.5075696 0.69388664 -0.16527157 4294967040
-1.5075099 0.69359148 -0.16028064 4294967040
-1.5074503 0.69329631 -0.15528972 4294967040
-1.5085924 0.68956721 -0.17553298 4294951168
-1.5085325 0.68927205 -0.17054206 4294967040
-1.5084729 0.68897688 -0.16555113 4294967040
-1.5084133 0.68868172 -0.16056021 4294967040
-1.5083537 0.68838656 -0.15556929 4294967040
-1.5094957 0.68465745 -0.17581253 4294951168
-1.5094361 0.68436229 -0.17082161 4294967040
-1.5093765 0.68406713 -0.16583067 4294967040
-1.5093167 0.68377197 -0.16083975 4294967040
-1.5103991 0.6797477 -0.17609209 4294951168
-1.5197914 0.63242096 -0.20883316 4294951168
-1.5197318 0.63212591 -0.20384225 4294951168
-1.5196722 0.63183075 -0.19885132 4294951168
-1.5196126 0.63153559 -0.1938604 4294951168
-1.5195529 0.63124043 -0.18886948 4294951168
-1.5207546 0.62780637 -0.21410364 4294951168
-1.520695 0.6275112 -0.2091127 4294951168
-1.5206354 0.62721616 -0.2041218 4294951168
-1.5205755 0.626921 -0.19913086 4294951168
-1.5205159 0.62662584 -0.19413994 4294951168
-1.5204563 0.62633067 -0.18914902 4294941184
-1.5216579 0.62289661 -0.2143832 4294951168
-1.5215983 0.62260145 -0.20939226 4294951168
-1.5215387 0.62230641 -0.20440136 4294951168
-1.5214791 0.62201124 -0.19941042 4294951168
-1.5214195 0.62171608 -0.1944195 4294951168
-1.5213599 0.62142092 -0.18942858 4294941184
-1.53111 0.57586533 -0.25211519 4294951168
-1.5310504 0.57557017 -0.24712428 4294951168
-1.5322521 0.5721361 -0.27235845 4294951168
-1.5321925 0.57184094 -0.26736754 4294951168
-1.5321326 0.57154578 -0.26237661 4294951168
-1.532073 0.57125062 -0.25738567 4294951168
-1.5320134 0.57095557 -0.25239477 4294951168
-1.533215 0.56752151 -0.27762893 4294941184
-1.5331554 0.56722635 -0.27263802 4294951168
-1.5330958 0.56693119 -0.26764709 4294951168
-1.5330362 0.56663603 -0.26265615 4294951168
-1.5329764 0.56634086 -0.25766525 4294951168
-1.5329168 0.56604582 -0.25267431 4294951168
-1.5341783 0.56290692 -0.28289941 4294901760
-1.5340588 0.5623166 -0.27291757 4294951168
-1.5339992 0.56202143 -0.26792663 4294951168
-1.5339396 0.56172627 -0.2629357 4294951168
-1.53388 0.56143111 -0.25794479 4294951168
-1.5432723 0.51410466 -0.29068586 4294901760
-1.5441756 0.50919479 -0.29096544 4294901760
-1.7131202 -0.40892828 -0.34324184 4294901760
-1.718601 -0.43809164 -0.34991008 4294901760
