# .PCD v0.7 - Point Cloud Data file format
VERSION 0.7
FIELDS x y z rgb
SIZE 4 4 4 4
TYPE F F F U
COUNT 1 1 1 1
WIDTH 1052
HEIGHT 1
VIEWPOINT 0 0 0 1 0 0 0
POINTS 1052
DATA ascii
1.0005065 -0.084599137 -0.32146204 4294901760
0.99960303 -0.089508891 -0.32174173 4294901760
0.99418271 -0.11896729 -0.3234199 4294901760
0.98876238 -0.14842582 -0.32509807 4294901760
0.98340166 -0.17817962 -0.32178533 4294901760
0.97798133 -0.20763803 -0.3234635 4294901760
0.97256088 -0.23709667 -0.32514167 4294901760
0.96714044 -0.26655507 -0.32681984 4294901760
0.96172011 -0.29601359 -0.32849801 4294901760
1.0731618 0.33912861 -0.30727816 4294901760
1.0722585 0.33421886 -0.30755785 4294901760
1.0713551 0.32930911 -0.30783755 4294901760
1.0623212 0.28021157 -0.31063449 4294901760
1.0623808 0.27991629 -0.30564356 4294901760
1.0614177 0.27530181 -0.31091419 4294901760
1.0614774 0.27500653 -0.30592325 4294901760
1.0524435 0.22590899 -0.3087202 4294901760
1.05154 0.22099936 -0.3089999 4294901760
1.0506366 0.21608961 -0.30927959 4294901760
1.0416623 0.16669655 -0.30708563 4294901760
1.0406992 0.1620822 -0.31235623 4294901760
1.0397959 0.15717244 -0.31263596 4294901760
0.99649262 -0.078790784 -0.32107037 4294901760
0.99107218 -0.10824943 -0.32274854 4294901760
0.99016881 -0.11315918 -0.32302824 4294901760
0.98474836 -0.14261758 -0.32470641 4294901760
0.97938776 -0.17237139 -0.32139367 4294901760
0.97396731 -0.20182979 -0.32307184 4294901760
0.96854687 -0.23128843 -0.32475001 4294901760
0.96312654 -0.26074684 -0.32642817 4294901760
0.95770621 -0.29020536 -0.32810634 4294901760
0.95222616 -0.3193686 -0.33477545 4294901760
1.0655344 0.32529771 -0.30800527 4294901760
1.064631 0.32038796 -0.30828497 4294901760
1.0637276 0.31547821 -0.30856466 4294901760
1.0555969 0.27129042 -0.31108192 4294901760
1.0546936 0.26638067 -0.31136161 4294901760
1.0537902 0.26147091 -0.31164131 4294901760
1.0448159 0.21207821 -0.30944735 4294901760
1.0438528 0.20746374 -0.31471795 4294901760
1.0429494 0.20255399 -0.31499764 4294901760
1.043009 0.20225871 -0.31000674 4294901760
1.0339751 0.15316117 -0.31280369 4294901760
1.0330718 0.14825141 -0.31308338 4294901760
0.98073447 -0.13680947 -0.32431477 4294901760
0.97627711 -0.16165352 -0.32072234 4294901760
0.97537374 -0.16656327 -0.32100201 4294901760
0.96995342 -0.19602168 -0.32268018 4294901760
0.96537673 -0.22027528 -0.32906958 4294901760
0.96447325 -0.22518504 -0.32934928 4294901760
0.96001601 -0.25002909 -0.32575685 4294901760
0.95911264 -0.25493872 -0.32603654 4294901760
0.95363259 -0.28410196 -0.33270562 4294901760
0.94911551 -0.30865085 -0.33410409 4294901760
0.94821215 -0.31356049 -0.33438379 4294901760
1.0479695 0.25745952 -0.31180903 4294901760
1.0471257 0.25225449 -0.30709782 4294901760
1.0462223 0.24734473 -0.30737752 4294901760
1.0380321 0.20345235 -0.31488568 4294901760
1.0362253 0.19363284 -0.31544507 4294901760
1.0362849 0.19333756 -0.31045416 4294901760
1.035322 0.18872309 -0.31572476 4294901760
1.0353816 0.18842781 -0.31073385 4294901760
1.027251 0.14424002 -0.31325111 4294901760
1.0263476 0.13933027 -0.3135308 4294901760
1.0254443 0.13442051 -0.3138105 4294901760
0.98846459 -0.067174554 -0.32028708 4294901760
0.98304427 -0.096633196 -0.32196525 4294901760
0.9821409 -0.10154295 -0.32224494 4294901760
0.97762394 -0.1260916 -0.32364342 4294901760
0.97672057 -0.13100135 -0.32392311 4294901760
0.97220349 -0.15555012 -0.32532158 4294901760
0.96684289 -0.18530381 -0.32200885 4294901760
0.9659394 -0.19021356 -0.32228854 4294901760
0.96136284 -0.21446717 -0.32867792 4294901760
0.956002 -0.24422097 -0.32536519 4294901760
0.95052195 -0.27338409 -0.33203426 4294901760
0.94961858 -0.27829385 -0.33231395 4294901760
0.94516134 -0.3031379 -0.32872152 4294901760
0.94425797 -0.30804777 -0.32900122 4294901760
1.06112 0.35655308 -0.3061032 4294901760
1.0602167 0.35164332 -0.30638289 4294901760
1.0593133 0.34673357 -0.30666259 4294901760
1.050339 0.29734075 -0.3044686 4294901760
1.0404016 0.24333346 -0.30754527 4294901760
1.0394982 0.23842371 -0.30782497 4294901760
1.0385947 0.23351395 -0.30810466 4294901760
1.0295012 0.18471181 -0.31589252 4294901760
1.0285978 0.17980206 -0.31617221 4294901760
1.0286574 0.17950678 -0.31118128 4294901760
1.0196235 0.13040924 -0.31397825 4294901760
1.0187201 0.12549949 -0.31425795 4294901760
1.0178167 0.12058973 -0.31453764 4294901760
0.9844507 -0.06136632 -0.31989542 4294901760
0.97903037 -0.090824962 -0.32157359 4294901760
0.97360992 -0.12028337 -0.32325175 4294901760
0.9681896 -0.14974189 -0.32492992 4294901760
0.96282887 -0.17949569 -0.32161719 4294901760
0.95740843 -0.20895422 -0.32329535 4294901760
0.95650506 -0.21386397 -0.32357505 4294901760
0.9519881 -0.23841274 -0.32497352 4294901760
0.94650805 -0.26757586 -0.33164263 4294901760
0.94114733 -0.29732978 -0.32832986 4294901760
1.0534328 0.34301746 -0.31182122 4294901760
1.0534925 0.34272218 -0.30683032 4294901760
1.0525295 0.33810771 -0.31210092 4294901760
1.0435551 0.28871489 -0.30990696 4294901760
1.0436149 0.2884196 -0.30491605 4294901760
1.0426518 0.28380513 -0.31018665 4294901760
1.0417483 0.27889538 -0.31046635 4294901760
1.0327741 0.22950256 -0.30827239 4294901760
1.0318706 0.22459292 -0.30855209 4294901760
1.0219333 0.17058551 -0.31162873 4294901760
1.0210299 0.16567576 -0.31190842 4294901760
1.0119959 0.11657834 -0.31470537 4294901760
1.0110925 0.11166859 -0.31498507 4294901760
1.0101891 0.10675883 -0.31526476 4294901760
0.98134017 -0.050648451 -0.31922406 4294901760
0.9804368 -0.055558205 -0.31950378 4294901760
0.97501636 -0.085016847 -0.32118195 4294901760
0.9704994 -0.10956562 -0.32258043 4294901760
0.96959591 -0.11447525 -0.32286012 4294901760
0.96507907 -0.13902402 -0.3242586 4294901760
0.9641757 -0.14393377 -0.32453829 4294901760
0.95881486 -0.17368758 -0.32122555 4294901760
0.95429802 -0.19823623 -0.32262403 4294901760
0.95339453 -0.20314598 -0.32290372 4294901760
0.94797421 -0.23260462 -0.32458189 4294901760
0.94249415 -0.26176775 -0.33125097 4294901760
0.94255376 -0.26206303 -0.32626006 4294901760
0.93713331 -0.29152155 -0.32793823 4294901760
0.93622994 -0.29643142 -0.32821792 4294901760
1.0260499 0.22058165 -0.30871981 4294901760
1.0251465 0.2156719 -0.30899951 4294901760
1.0241835 0.21105742 -0.31427014 4294901760
1.0242431 0.21076214 -0.3092792 4294901760
1.02328 0.20614767 -0.3145498 4294901760
1.0233397 0.20585239 -0.3095589 4294901760
1.0143057 0.15675485 -0.31235585 4294901760
1.0034649 0.097837806 -0.31571218 4294901760
1.0026213 0.092632651 -0.31100097 4294901760
0.97732615 -0.044840336 -0.31883243 4294901760
0.97100234 -0.079208612 -0.32079029 4294901760
0.9664855 -0.10375738 -0.32218876 4294901760
0.96106505 -0.13321579 -0.32386693 4294901760
0.95480096 -0.16787934 -0.32083389 4294901760
0.950284 -0.19242799 -0.32223237 4294901760
0.94396019 -0.22679639 -0.32419023 4294901760
0.93853974 -0.25625479 -0.3258684 4294901760
0.93311942 -0.28571332 -0.32754657 4294901760
0.92763937 -0.31487656 -0.33421564 4294901760
1.0165559 0.19722652 -0.31499726 4294901760
0.99680054 0.088621378 -0.3111687 4294901760
0.99589717 0.083711624 -0.3114484 4294901760
0.97331226 -0.039032221 -0.31844077 4294901760
0.96789193 -0.068490624 -0.32011893 4294901760
0.96698856 -0.073400378 -0.32039863 4294901760
0.96247149 -0.097949266 -0.3217971 4294901760
0.95705116 -0.12740767 -0.32347527 4294901760
0.95078707 -0.16207123 -0.32044223 4294901760
0.94536662 -0.19152963 -0.3221204 4294901760
0.93988657 -0.22069299 -0.3287895 4294901760
0.93452597 -0.25044668 -0.32547677 4294901760
0.92904592 -0.27960992 -0.33214584 4294901760
0.92910552 -0.2799052 -0.32715493 4294901760
0.92452884 -0.30415881 -0.33354431 4294901760
0.92362547 -0.30906844 -0.33382401 4294901760
1.0315729 0.30584419 -0.3037411 4294901760
1.0306696 0.30093443 -0.30402079 4294901760
1.0198288 0.24201739 -0.30737713 4294901760
0.99905062 0.12909317 -0.31381011 4294901760
0.99814725 0.12418342 -0.3140898 4294901760
0.9900167 0.079995751 -0.31660706 4294901760
0.99007642 0.079700351 -0.31161612 4294901760
0.98911333 0.075085998 -0.31688675 4294901760
0.98917305 0.074790597 -0.31189582 4294901760
0.98820996 0.070176244 -0.31716645 4294901760
0.96387792 -0.06268239 -0.3197273 4294901760
0.95303714 -0.12159944 -0.32308364 4294901760
0.95213377 -0.12650919 -0.32336333 4294901760
0.94761682 -0.15105796 -0.32476181 4294901760
0.94671345 -0.15596771 -0.3250415 4294901760
0.94225609 -0.18081164 -0.32144907 4294901760
0.94135261 -0.1857214 -0.32172877 4294901760
0.93677604 -0.209975 -0.32811815 4294901760
0.93587255 -0.21488476 -0.32839784 4294901760
0.93141532 -0.23972881 -0.32480541 4294901760
0.93051195 -0.24463856 -0.3250851 4294901760
0.92593527 -0.26889193 -0.33147448 4294901760
0.9250319 -0.27380168 -0.33175418 4294901760
0.92051494 -0.29835045 -0.33315265 4294901760
1.0337634 0.34661114 -0.31137338 4294901760
1.0338231 0.34631586 -0.30638248 4294901760
1.0329196 0.34140611 -0.30666217 4294901760
1.0248488 0.29692304 -0.30418852 4294901760
1.0239453 0.29201329 -0.30446821 4294901760
1.023042 0.28710353 -0.30474791 4294901760
1.0131047 0.23309624 -0.30782455 4294901760
1.0122013 0.22818661 -0.30810425 4294901760
1.0112979 0.22327685 -0.30838394 4294901760
0.9923265 0.12017202 -0.31425753 4294901760
0.99142313 0.11526227 -0.31453723 4294901760
0.98148584 0.061255097 -0.31761387 4294901760
0.98058248 0.056345344 -0.31789356 4294901760
0.96528435 -0.027415872 -0.31765747 4294901760
0.96438098 -0.032325625 -0.31793717 4294901760
0.9598639 -0.056874275 -0.31933564 4294901760
0.95896053 -0.061784029 -0.31961533 4294901760
0.95444357 -0.086332917 -0.32101381 4294901760
0.95354021 -0.091242671 -0.3212935 4294901760
0.94902325 -0.11579132 -0.32269198 4294901760
0.9436028 -0.14524984 -0.32437015 4294901760
0.93818247 -0.17470837 -0.32604831 4294901760
0.93282175 -0.20446217 -0.32273558 4294901760
0.93191838 -0.20937192 -0.32301527 4294901760
0.9274013 -0.23392069 -0.32441375 4294901760
0.92192125 -0.26308382 -0.33108282 4294901760
0.91656065 -0.29283774 -0.32777008 4294901760
0.91565728 -0.29774737 -0.32804978 4294901760
1.0270393 0.33769011 -0.31182083 4294901760
1.0261359 0.33278036 -0.31210053 4294901760
1.0154145 0.27327275 -0.30547506 4294901760
1.0054772 0.21926558 -0.3085517 4294901760
1.0045737 0.21435583 -0.30883139 4294901760
0.98560238 0.111251 -0.31470498 4294901760
0.98469901 0.10634124 -0.31498468 4294901760
0.97476172 0.05233407 -0.31806129 4294901760
0.97295487 0.042514443 -0.31862071 4294901760
0.96127033 -0.021607637 -0.31726581 4294901760
0.95585001 -0.051066041 -0.31894398 4294901760
0.95042968 -0.080524683 -0.32062215 4294901760
0.94500923 -0.10998309 -0.32230031 4294901760
0.9395889 -0.13944161 -0.32397848 4294901760
0.93416858 -0.16890013 -0.32565665 4294901760
0.92880774 -0.19865382 -0.32234392 4294901760
0.92338741 -0.22811246 -0.32402211 4294901760
0.92248404 -0.23302221 -0.32430181 4294901760
0.91790736 -0.25727558 -0.33069119 4294901760
0.91254663 -0.28702939 -0.32737845 4294901760
1.0194714 0.32356393 -0.30755705 4294901760
1.018568 0.31865418 -0.30783674 4294901760
1.0176647 0.31374443 -0.30811644 4294901760
1.0095937 0.26926136 -0.30564278 4294901760
1.0086904 0.26435161 -0.30592248 4294901760
1.007787 0.25944185 -0.30620217 4294901760
0.99875307 0.21034443 -0.30899912 4294901760
0.99694622 0.20052493 -0.30955851 4294901760
0.98706853 0.14622223 -0.30764425 4294901760
0.97797489 0.097420096 -0.3154321 4294901760
0.97616816 0.087600708 -0.31599149 4294901760
0.96623075 0.033593297 -0.31906813 4294901760
0.96532726 0.028683543 -0.31934783 4294901760
0.95725644 -0.015799522 -0.31687418 4294901760
0.95183611 -0.045257926 -0.31855235 4294901760
0.94635606 -0.074421167 -0.32522142 4294901760
0.94641566 -0.074716568 -0.32023051 4294901760
0.9418987 -0.099265337 -0.32162899 4294901760
0.94099534 -0.10417509 -0.32190868 4294901760
0.93647838 -0.12872374 -0.32330716 4294901760
0.93557501 -0.13363349 -0.32358685 4294901760
0.93015456 -0.16309202 -0.32526502 4294901760
0.92473423 -0.19255042 -0.32694319 4294901760
0.92479396 -0.1928457 -0.32195228 4294901760
0.91931379 -0.22200906 -0.32862136 4294901760
0.91389346 -0.25146747 -0.33029953 4294901760
0.91395307 -0.25176275 -0.32530862 4294901760
0.90853274 -0.28122127 -0.32698679 4294901760
0.90305269 -0.31038451 -0.33365586 4294901760
1.0119035 0.30943787 -0.30329326 4294901760
1.0110002 0.30452812 -0.30357295 4294901760
1.0019662 0.25543058 -0.3063699 4294901760
1.0010031 0.25081611 -0.3116405 4294901760
1.0010629 0.25052083 -0.3066496 4294901760
1.0000997 0.24590635 -0.31192023 4294901760
1.0001594 0.24561107 -0.30692929 4294901760
0.99112546 0.19651365 -0.30972624 4294901760
0.98931861 0.18669415 -0.31028563 4294901760
0.9803443 0.13730121 -0.30809167 4294901760
0.97938132 0.13268685 -0.31336227 4294901760
0.97944093 0.13239145 -0.30837137 4294901760
0.97847795 0.1277771 -0.31364197 4294901760
0.97853756 0.1274817 -0.30865106 4294901760
0.9703474 0.083589435 -0.31615922 4294901760
0.96944392 0.078679681 -0.31643891 4294901760
0.96854055 0.073769927 -0.31671861 4294901760
0.95950651 0.024672389 -0.31951556 4294901760
0.95860314 0.019762635 -0.31979525 4294901760
0.95414591 -0.0050815344 -0.31620282 4294901760
0.95324254 -0.0099912882 -0.31648251 4294901760
0.94872546 -0.034540057 -0.31788099 4294901760
0.94782209 -0.039449811 -0.31816068 4294901760
0.94324541 -0.06370306 -0.32455006 4294901760
0.94330513 -0.063998461 -0.31955916 4294901760
0.94234204 -0.068612814 -0.32482976 4294901760
0.94240165 -0.068908215 -0.31983885 4294901760
0.93788481 -0.093457103 -0.32123733 4294901760
0.92614055 -0.15728378 -0.32487336 4294901760
0.92072022 -0.18674219 -0.32655153 4294901760
0.92077994 -0.18703747 -0.32156062 4294901760
0.91529989 -0.21620083 -0.3282297 4294901760
0.90993905 -0.24595451 -0.32491696 4294901760
0.90451872 -0.27541304 -0.32659513 4294901760
0.89903879 -0.30457628 -0.3332642 4294901760
1.0051794 0.30051672 -0.30374071 4294901760
1.004276 0.29560697 -0.3040204 4294901760
1.0033727 0.29069722 -0.3043001 4294901760
0.99427891 0.24189496 -0.31208795 4294901760
0.99433863 0.24159968 -0.30709705 4294901760
0.99337554 0.23698521 -0.31236765 4294901760
0.99343526 0.23668993 -0.30737674 4294901760
0.98349786 0.18268275 -0.31045339 4294901760
0.98259449 0.17777288 -0.31073308 4294901760
0.98169112 0.17286313 -0.31101277 4294901760
0.9726572 0.12376571 -0.31380972 4294901760
0.97175372 0.11885595 -0.31408942 4294901760
0.9627198 0.069758534 -0.31688634 4294901760
0.96181631 0.064848781 -0.31716603 4294901760
0.96091294 0.059939027 -0.31744573 4294901760
0.95278239 0.015751243 -0.31996301 4294901760
0.95187902 0.010841489 -0.3202427 4294901760
0.95013189 0.00072658062 -0.31581116 4294901760
0.94471157 -0.028731942 -0.31748933 4294901760
0.93832803 -0.062804699 -0.32443812 4294901760
0.93387079 -0.087648988 -0.32084566 4294901760
0.92754698 -0.12201715 -0.32280356 4294901760
0.92303002 -0.14656591 -0.324202 4294901760
0.92212665 -0.15147567 -0.32448173 4294901760
0.9176693 -0.1763196 -0.32088926 4294901760
0.91670632 -0.18093407 -0.32615989 4294901760
0.91676593 -0.18122935 -0.32116896 4294901760
0.91218925 -0.20548296 -0.32755837 4294901760
0.91128588 -0.21039271 -0.32783806 4294901760
0.90682864 -0.23523676 -0.32424563 4294901760
0.90592515 -0.24014652 -0.32452533 4294901760
0.90134859 -0.26439989 -0.33091471 4294901760
0.9004451 -0.26930964 -0.3311944 4294901760
0.89592814 -0.29385841 -0.33259287 4294901760
0.89502478 -0.29876828 -0.33287257 4294901760
1.0073699 0.3412838 -0.311373 4294901760
1.0064665 0.33637404 -0.31165269 4294901760
0.99755192 0.28668594 -0.30446783 4294901760
0.99574506 0.27686644 -0.30502722 4294901760
0.98761451 0.23267877 -0.30754447 4294901760
0.98580766 0.22285926 -0.30810386 4294901760
0.97587037 0.16885185 -0.3111805 4294901760
0.974967 0.16394222 -0.3114602 4294901760
0.96593308 0.11484468 -0.31425714 4294901760
0.9650296 0.10993493 -0.31453684 4294901760
0.96412623 0.10502517 -0.31481653 4294901760
0.95509219 0.055927753 -0.31761348 4294901760
0.95418882 0.05101788 -0.31789318 4294901760
0.946118 0.0065348148 -0.31541952 4294901760
0.94431114 -0.0032846928 -0.31597891 4294901760
0.94250441 -0.0131042 -0.3165383 4294901760
0.94069767 -0.022923708 -0.31709769 4294901760
0.93521762 -0.052086711 -0.32376677 4294901760
0.93527722 -0.052382112 -0.31877586 4294901760
0.93431413 -0.056996465 -0.32404646 4294901760
0.93437386 -0.057291865 -0.31905556 4294901760
0.92979717 -0.081545353 -0.32544494 4294901760
0.92443645 -0.11129916 -0.3221322 4294901760
0.92353308 -0.11620891 -0.32241189 4294901760
0.91901612 -0.14075768 -0.32381037 4294901760
0.91359568 -0.1702162 -0.32548854 4294901760
0.91269231 -0.17512584 -0.32576823 4294901760
0.90733159 -0.20487976 -0.3224555 4294901760
0.90281463 -0.22942853 -0.32385397 4294901760
0.89191413 -0.28805029 -0.33220121 4294901760
0.89101076 -0.29295993 -0.33248091 4294901760
1.0006458 0.33236265 -0.31182045 4294901760
0.9988389 0.32254314 -0.31237984 4294901760
0.98992431 0.27285504 -0.30519494 4294901760
0.98896122 0.26824057 -0.31046557 4294901760
0.98902094 0.26794529 -0.30547464 4294901760
0.98805785 0.26333082 -0.31074527 4294901760
0.98811758 0.26303554 -0.30575433 4294901760
0.97998691 0.21884787 -0.30827159 4294901760
0.97908354 0.21393812 -0.30855128 4294901760
0.97818017 0.20902836 -0.30883098 4294901760
0.96914625 0.15993083 -0.31162792 4294901760
0.96824288 0.15502107 -0.31190762 4294901760
0.96733952 0.15011132 -0.31218731 4294901760
0.95830548 0.10101378 -0.31498426 4294901760
0.95740199 0.096104145 -0.31526396 4294901760
0.94836807 0.047006488 -0.3180609 4294901760
0.94656134 0.03718698 -0.31862029 4294901760
0.94565797 0.032277226 -0.31889999 4294901760
0.94204426 0.01263833 -0.32001877 4294901760
0.94114089 0.0077285767 -0.32029846 4294901760
0.93668365 -0.017115593 -0.31670603 4294901760
0.93572056 -0.021729946 -0.32197663 4294901760
0.9312036 -0.046278596 -0.32337511 4294901760
0.93126321 -0.046573997 -0.3183842 4294901760
0.92578316 -0.075737238 -0.3250533 4294901760
0.92042255 -0.10549104 -0.32174054 4294901760
0.91500211 -0.13494956 -0.32341871 4294901760
0.90958178 -0.16440809 -0.32509688 4294901760
0.90416145 -0.19386649 -0.32677504 4294901760
0.90422106 -0.19416177 -0.32178414 4294901760
0.90325797 -0.19877636 -0.32705474 4294901760
0.90331769 -0.19907165 -0.32206383 4294901760
0.89880061 -0.22362041 -0.32346231 4294901760
0.89789724 -0.22853017 -0.323742 4294901760
0.89241719 -0.25769329 -0.33041108 4294901760
0.88790023 -0.28224206 -0.33180955 4294901760
0.99307787 0.31823647 -0.30755666 4294901760
0.99217451 0.31332672 -0.30783635 4294901760
0.99127114 0.30841696 -0.30811605 4294901760
0.9822371 0.25931942 -0.310913 4294901760
0.98229682 0.25902414 -0.30592209 4294901760
0.98133373 0.25440967 -0.31119269 4294901760
0.98139334 0.25411439 -0.30620179 4294901760
0.97235942 0.20501697 -0.30899873 4294901760
0.97145605 0.20010722 -0.30927843 4294901760
0.97055268 0.19519746 -0.30955812 4294901760
0.96157837 0.14580452 -0.30736414 4294901760
0.960675 0.14089477 -0.30764383 4294901760
0.95971191 0.13628042 -0.31291446 4294901760
0.95061827 0.08747828 -0.32070231 4294901760
0.95067787 0.087182999 -0.31571138 4294901760
0.9497745 0.082273245 -0.3159911 4294901760
0.94887114 0.077363491 -0.31627077 4294901760
0.93983722 0.028265953 -0.31906775 4294901760
0.93803036 0.018446445 -0.31962714 4294901760
0.93357301 -0.0063977242 -0.31603467 4294901760
0.93266964 -0.011307478 -0.31631437 4294901760
0.92989981 -0.025741339 -0.32214439 4294901760
0.92899644 -0.030651093 -0.32242408 4294901760
0.92809296 -0.035560846 -0.32270378 4294901760
0.92718959 -0.040470481 -0.32298347 4294901760
0.92176926 -0.069929123 -0.32466164 4294901760
0.91640854 -0.099683046 -0.32134891 4294901760
0.91098821 -0.12914145 -0.32302707 4294901760
0.90556788 -0.15859997 -0.32470524 4294901760
0.90014744 -0.18805838 -0.32638341 4294901760
0.90020704 -0.18835366 -0.32139248 4294901760
0.89472699 -0.21751702 -0.32806158 4294901760
0.89478672 -0.2178123 -0.32307068 4294901760
0.88930666 -0.24697542 -0.32973975 4294901760
0.8884033 -0.25188518 -0.33001944 4294901760
0.88394594 -0.27672923 -0.32642701 4294901760
0.88304257 -0.28163898 -0.32670671 4294901760
0.98550999 0.30411041 -0.30329287 4294901760
0.98460662 0.29920065 -0.30357257 4294901760
0.98370314 0.2942909 -0.30385226 4294901760
0.97551298 0.2503984 -0.31136042 4294901760
0.97557259 0.25010312 -0.30636951 4294901760
0.97460961 0.24548864 -0.31164011 4294901760
0.97370625 0.24057889 -0.31191981 4294901760
0.96473193 0.19118619 -0.30972585 4294901760
0.95389116 0.13226914 -0.31308219 4294901760
0.95395088 0.13197374 -0.30809128 4294901760
0.9520843 0.12244964 -0.31364158 4294901760
0.94305038 0.073352218 -0.31643853 4294901760
0.94214702 0.068442464 -0.31671822 4294901760
0.94124365 0.06353271 -0.31699792 4294901760
0.93491983 0.029164433 -0.31895578 4294901760
0.93401647 0.02425468 -0.31923547 4294901760
0.93220961 0.014435172 -0.31979486 4294901760
0.93130624 0.0095254183 -0.32007456 4294901760
0.92865574 -0.0054992437 -0.31592274 4294901760
0.92413878 -0.030048013 -0.31732121 4294901760
0.92136884 -0.044481754 -0.3231512 4294901760
0.91775537 -0.06412077 -0.32426998 4294901760
0.91239452 -0.093874812 -0.32095724 4294901760
0.90697432 -0.12333322 -0.32263541 4294901760
0.90155387 -0.15279174 -0.32431358 4294901760
0.89613342 -0.18225014 -0.32599175 4294901760
0.8907131 -0.21170878 -0.32766992 4294901760
0.88535237 -0.24146247 -0.32435718 4294901760
0.87993193 -0.27092099 -0.32603535 4294901760
0.87445199 -0.30008423 -0.33270442 4294901760
0.87354851 -0.30499399 -0.33298412 4294901760
0.9778825 0.29027951 -0.30401999 4294901760
0.97697902 0.28536975 -0.30429968 4294901760
0.97601604 0.28075528 -0.30957031 4294901760
0.96788549 0.23656762 -0.31208757 4294901760
0.96704173 0.23136258 -0.30737633 4294901760
0.95710444 0.17735517 -0.310453 4294901760
0.95620096 0.17244542 -0.31073269 4294901760
0.94626355 0.11843824 -0.31380931 4294901760
0.94536018 0.11352849 -0.314089 4294901760
0.9354229 0.059521317 -0.31716564 4294901760
0.93451953 0.054611444 -0.31744534 4294901760
0.93090582 0.034972429 -0.31856412 4294901760
0.92548549 0.0055140257 -0.32024229 4294901760
0.92458212 0.00060427189 -0.32052198 4294901760
0.92367864 -0.0043054819 -0.32080168 4294901760
0.91554809 -0.048493147 -0.32331893 4294901760
0.91464472 -0.053402901 -0.32359862 4294901760
0.91374135 -0.058312654 -0.32387832 4294901760
0.90838075 -0.088066697 -0.32056558 4294901760
0.9029603 -0.1175251 -0.32224375 4294901760
0.89748025 -0.14668822 -0.32891285 4294901760
0.89211953 -0.17644203 -0.32560009 4294901760
0.8866992 -0.20590067 -0.32727826 4294901760
0.88133848 -0.23565447 -0.32396552 4294901760
0.87591815 -0.26511288 -0.32564369 4294901760
0.8704381 -0.29427624 -0.33231276 4294901760
0.98097634 0.33595634 -0.31137261 4294901760
0.98007298 0.33104658 -0.3116523 4294901760
0.97916961 0.32613683 -0.311932 4294901760
0.97115827 0.28135848 -0.30446744 4294901760
0.97019529 0.27674401 -0.30973804 4294901760
0.9702549 0.27644873 -0.30474713 4294901760
0.96929193 0.27183425 -0.31001773 4294901760
0.96935153 0.27153897 -0.30502683 4294901760
0.96838856 0.2669245 -0.31029743 4294901760
0.96844816 0.26662922 -0.30530652 4294901760
0.96031761 0.22244155 -0.30782378 4294901760
0.95941424 0.2175318 -0.30810347 4294901760
0.95851076 0.21262205 -0.30838317 4294901760
0.94947672 0.16352451 -0.31118011 4294901760
0.94857335 0.15861475 -0.31145981 4294901760
0.94766998 0.153705 -0.3117395 4294901760
0.93953943 0.10951722 -0.31425676 4294901760
0.93863606 0.10460746 -0.31453645 4294901760
0.93767297 0.09999311 -0.31980705 4294901760
0.9377327 0.099697828 -0.31481615 4294901760
0.92869878 0.050600171 -0.3176131 4294901760
0.92779529 0.045690417 -0.31789279 4294901760
0.92689192 0.040780663 -0.31817248 4294901760
0.9214716 0.01132226 -0.31985065 4294901760
0.92056811 0.0064125061 -0.32013035 4294901760
0.91785789 -0.0083167553 -0.32096943 4294901760
0.91605115 -0.018136263 -0.32152882 4294901760
0.91520739 -0.023341417 -0.31681758 4294901760
0.90972733 -0.05250442 -0.32348669 4294901760
0.90701723 -0.067233801 -0.32432577 4294901760
0.90611386 -0.072143555 -0.32460546 4294901760
0.90430701 -0.081963062 -0.32516485 4294901760
0.89894629 -0.11171687 -0.32185212 4294901760
0.8943696 -0.13597023 -0.3282415 4294901760
0.89346623 -0.14087999 -0.32852119 4294901760
0.889009 -0.16572416 -0.32492876 4294901760
0.88810563 -0.17063379 -0.32520846 4294901760
0.88268518 -0.20009243 -0.32688662 4294901760
0.87732446 -0.22984624 -0.32357389 4294901760
0.8727479 -0.25409961 -0.32996327 4294901760
0.87184441 -0.25900936 -0.33024296 4294901760
0.86642408 -0.28846788 -0.33192113 4294901760
0.97340846 0.32183015 -0.30710882 4294901760
0.97250509 0.3169204 -0.30738851 4294901760
0.97160172 0.31201065 -0.30766821 4294901760
0.96256781 0.26291311 -0.31046516 4294901760
0.96166432 0.25800335 -0.31074485 4294901760
0.95269001 0.20861065 -0.30855089 4294901760
0.95178664 0.2037009 -0.30883059 4294901760
0.95088327 0.19879115 -0.30911028 4294901760
0.94184923 0.14969361 -0.31190723 4294901760
0.94094586 0.14478385 -0.31218693 4294901760
0.9400425 0.1398741 -0.31246662 4294901760
0.93185234 0.095981717 -0.31997481 4294901760
0.93191195 0.095686436 -0.31498387 4294901760
0.93094885 0.091071963 -0.32025447 4294901760
0.93100858 0.090776682 -0.31526357 4294901760
0.93004549 0.08616221 -0.32053417 4294901760
0.92107117 0.036769271 -0.31834021 4294901760
0.91926432 0.026949883 -0.3188996 4294901760
0.91209698 -0.012623549 -0.31614625 4294901760
0.9102304 -0.022147655 -0.32169655 4294901760
0.90932703 -0.027057409 -0.32197624 4294901760
0.90842366 -0.031967163 -0.32225594 4294901760
0.90661681 -0.041786551 -0.32281533 4294901760
0.90571344 -0.046696305 -0.32309502 4294901760
0.90119648 -0.071245193 -0.3244935 4294901760
0.90029311 -0.076154947 -0.32477319 4294901760
0.89944935 -0.081360102 -0.32006198 4294901760
0.89854598 -0.086269855 -0.32034168 4294901760
0.89583576 -0.100999 -0.32118076 4294901760
0.89493227 -0.10590875 -0.32146046 4294901760
0.89035571 -0.13016212 -0.32784984 4294901760
0.88499498 -0.15991604 -0.3245371 4294901760
0.87957466 -0.18937445 -0.32621527 4294901760
0.87867117 -0.19428432 -0.32649496 4294901760
0.87421393 -0.21912837 -0.32290253 4294901760
0.87331057 -0.22403812 -0.32318223 4294901760
0.86873388 -0.24829149 -0.3295716 4294901760
0.86241007 -0.28265989 -0.33152947 4294901760
0.96578097 0.30799937 -0.30783597 4294901760
0.96487761 0.30308962 -0.30811566 4294901760
0.95584369 0.25399208 -0.31091261 4294901760
0.9549402 0.24908233 -0.3111923 4294901760
0.95403683 0.24417257 -0.311472 4294901760
0.94506252 0.19477987 -0.30927801 4294901760
0.94415915 0.18987012 -0.30955771 4294901760
0.93422174 0.13586283 -0.31263435 4294901760
0.93331838 0.13095307 -0.31291407 4294901760
0.92422473 0.082150936 -0.32070193 4294901760
0.92332137 0.077241182 -0.32098162 4294901760
0.92338109 0.076945901 -0.31599069 4294901760
0.91886401 0.052397013 -0.31738916 4294901760
0.91796064 0.047487259 -0.31766886 4294901760
0.91344357 0.022938609 -0.31906733 4294901760
0.9125402 0.018028855 -0.31934702 4294901760
0.91163683 0.013119102 -0.31962672 4294901760
0.90802324 -0.0065199137 -0.3207455 4294901760
0.90260291 -0.035978317 -0.32242367 4294901760
0.90266252 -0.036273718 -0.31743276 4294901760
0.90169954 -0.040888071 -0.32270336 4294901760
0.90079618 -0.045797825 -0.32298306 4294901760
0.89718246 -0.065436959 -0.32410187 4294901760
0.89272523 -0.090281129 -0.3205094 4294901760
0.89182186 -0.095190883 -0.3207891 4294901760
0.89085865 -0.099805117 -0.32605973 4294901760
0.89091849 -0.10010052 -0.32106879 4294901760
0.88634181 -0.12435389 -0.3274582 4294901760
0.88098109 -0.15410781 -0.32414544 4294901760
0.87556076 -0.18356621 -0.32582361 4294901760
0.87019992 -0.21332014 -0.32251087 4294901760
0.86471987 -0.24248326 -0.32917994 4294901760
0.85929954 -0.27194178 -0.33085814 4294901760
0.85935926 -0.27223706 -0.32586721 4294901760
0.85839617 -0.27685153 -0.33113784 4294901760
0.95905685 0.29907823 -0.30828339 4294901760
0.95815349 0.29416847 -0.30856308 4294901760
0.95821309 0.29387319 -0.30357218 4294901760
0.95725 0.28925872 -0.30884278 4294901760
0.95730972 0.28896344 -0.30385187 4294901760
0.94821608 0.2401613 -0.31163973 4294901760
0.94731259 0.23525155 -0.31191942 4294901760
0.94640923 0.23034179 -0.31219912 4294901760
0.93833828 0.18585861 -0.30972546 4294901760
0.93839812 0.18556321 -0.30473453 4294901760
0.93743491 0.18094885 -0.31000516 4294901760
0.93749464 0.18065345 -0.30501422 4294901760
0.93653154 0.1760391 -0.31028485 4294901760
0.93659127 0.1757437 -0.30529392 4294901760
0.92659426 0.12203193 -0.3133615 4294901760
0.92569089 0.11712217 -0.31364119 4294901760
0.91665685 0.068024755 -0.31643814 4294901760
0.91575348 0.063115001 -0.31671783 4294901760
0.91485 0.058205128 -0.31699753 4294901760
0.90942967 0.028746724 -0.3186757 4294901760
0.90581608 0.0091077089 -0.31979448 4294901760
0.90485311 0.0044932365 -0.32506508 4294901760
0.90491271 0.0041979551 -0.32007417 4294901760
0.90394962 -0.00041651726 -0.32534477 4294901760
0.90400934 -0.00071179867 -0.32035387 4294901760
0.8985889 -0.030170321 -0.32203203 4294901760
0.89864862 -0.030465722 -0.3170411 4294901760
0.89497542 -0.049809217 -0.32315081 4294901760
0.89316857 -0.059628725 -0.3237102 4294901760
0.88865161 -0.084177613 -0.32510868 4294901760
0.88780785 -0.089382768 -0.32039747 4294901760
0.8850379 -0.10381651 -0.32622746 4294901760
0.88413453 -0.10872626 -0.32650715 4294901760
0.88323116 -0.11363602 -0.32678685 4294901760
0.8823278 -0.11854577 -0.32706654 4294901760
0.88238752 -0.11884117 -0.32207564 4294901760
0.87696719 -0.14829969 -0.3237538 4294901760
0.8760637 -0.15320945 -0.3240335 4294901760
0.87154675 -0.1777581 -0.32543197 4294901760
0.8661263 -0.20721674 -0.32711014 4294901760
0.86070597 -0.23667514 -0.32878831 4294901760
0.8607657 -0.23697042 -0.3237974 4294901760
0.8598026 -0.2415849 -0.32906801 4294901760
0.85528564 -0.26613367 -0.33046648 4294901760
0.85534525 -0.26642895 -0.32547557 4294901760
0.8498652 -0.29559219 -0.33214465 4294901760
0.95142925 0.28524745 -0.30901054 4294901760
0.95148897 0.28495216 -0.3040196 4294901760
0.95052588 0.28033769 -0.30929023 4294901760
0.9505856 0.28004241 -0.30429929 4294901760
0.94962239 0.27542794 -0.30956993 4294901760
0.9406482 0.22603524 -0.30737594 4294901760
0.93974471 0.22112548 -0.30765563 4294901760
0.93071079 0.17202795 -0.31045258 4294901760
0.92980742 0.16711819 -0.31073228 4294901760
0.91987014 0.1131109 -0.31380892 4294901760
0.91890693 0.10849643 -0.31907955 4294901760
0.91896665 0.10820115 -0.31408861 4294901760
0.91800356 0.10358679 -0.31935924 4294901760
0.91806328 0.10329151 -0.31436831 4294901760
0.9108361 0.064013481 -0.31660587 4294901760
0.90902925 0.054193854 -0.31716526 4294901760
0.90812588 0.049284101 -0.31744495 4294901760
0.90541577 0.034554958 -0.31828403 4294901760
0.90083909 0.010301471 -0.32467344 4294901760
0.89818859 -0.0047230721 -0.32052159 4294901760
0.89728522 -0.0096328259 -0.32080129 4294901760
0.894575 -0.024362087 -0.32164037 4294901760
0.89005804 -0.048910737 -0.32303885 4294901760
0.88915467 -0.053820491 -0.32331854 4294901760
0.88734782 -0.063640118 -0.32387793 4294901760
0.88644433 -0.068549871 -0.32415763 4294901760
0.88463759 -0.078369379 -0.32471702 4294901760
0.87921715 -0.10782778 -0.32639518 4294901760
0.87837362 -0.11303294 -0.32168397 4294901760
0.87741041 -0.11764729 -0.32695457 4294901760
0.87560368 -0.1274668 -0.32751396 4294901760
0.87289345 -0.14219606 -0.32835305 4294901760
0.86753273 -0.17194986 -0.32504031 4294901760
0.8621124 -0.20140851 -0.32671848 4294901760
0.85669208 -0.23086703 -0.32839665 4294901760
0.85675168 -0.23116231 -0.32340574 4294901760
0.85223472 -0.25571096 -0.32480422 4294901760
0.85133123 -0.26062071 -0.32508391 4294901760
0.84585118 -0.28978407 -0.33175299 4294901760
0.95458281 0.33062887 -0.31137222 4294901760
0.95367944 0.32571912 -0.31165192 4294901760
0.9528358 0.32051408 -0.3069407 4294901760
0.94380176 0.27141654 -0.30973765 4294901760
0.94289839 0.26650679 -0.31001735 4294901760
0.93302059 0.21220434 -0.30810305 4294901760
0.93211722 0.20729458 -0.30838275 4294901760
0.93121386 0.20238483 -0.30866244 4294901760
0.9230237 0.15849233 -0.31617063 4294901760
0.92308331 0.15819705 -0.3111797 4294901760
0.92212033 0.15358257 -0.31645033 4294901760
0.92217994 0.15328729 -0.31145942 4294901760
0.92127657 0.14837754 -0.31173909 4294901760
0.91218293 0.0995754 -0.31952697 4294901760
0.91127944 0.094665647 -0.31980667 4294901760
0.91037607 0.089755893 -0.32008636 4294901760
0.9068222 0.069821596 -0.3162142 4294901760
0.90230513 0.045272708 -0.31761271 4294901760
0.90140176 0.040362954 -0.31789237 4294901760
0.90049839 0.03545332 -0.3181721 4294901760
0.89682508 0.016109586 -0.32428178 4294901760
0.8968848 0.015814304 -0.31929088 4294901760
0.89592171 0.011199832 -0.32456148 4294901760
0.89598143 0.010904551 -0.31957054 4294901760
0.89146447 -0.013644218 -0.32096905 4294901760
0.8905611 -0.018553972 -0.32124871 4294901760
0.88604403 -0.043102622 -0.32264721 4294901760
0.8806237 -0.072561264 -0.32432538 4294901760
0.87972021 -0.077471018 -0.32460508 4294901760
0.87881684 -0.082380772 -0.32488477 4294901760
0.87435961 -0.10722482 -0.32129231 4294901760
0.86978292 -0.13147819 -0.32768172 4294901760
0.86887956 -0.13638794 -0.32796142 4294901760
0.86351883 -0.16614175 -0.32464865 4294901760
0.85809851 -0.19560039 -0.32632685 4294901760
0.85267806 -0.22505891 -0.32800502 4294901760
0.85273778 -0.22535419 -0.32301408 4294901760
0.84731746 -0.2548126 -0.32469225 4294901760
0.84183741 -0.28397584 -0.33136135 4294901760
0.94701505 0.31650281 -0.30710843 4294901760
0.94611156 0.31159306 -0.30738813 4294901760
0.94520807 0.3066833 -0.30766782 4294901760
0.93707752 0.26249552 -0.31018507 4294901760
0.93527079 0.25267601 -0.31074446 4294901760
0.93436742 0.24776626 -0.31102416 4294901760
0.9253931 0.19837356 -0.3088302 4294901760
0.92448974 0.1934638 -0.3091099 4294901760
0.91545582 0.14436626 -0.31190684 4294901760
0.91455233 0.13945651 -0.31218654 4294901760
0.91364896 0.13454676 -0.31246623 4294901760
0.90455532 0.085744619 -0.32025409 4294901760
0.90365195 0.080834866 -0.32053378 4294901760
0.90280819 0.07562983 -0.31582257 4294901760
0.89829123 0.051080942 -0.31722105 4294901760
0.89738774 0.046171188 -0.31750074 4294901760
0.89467764 0.031442046 -0.31833982 4294901760
0.89281118 0.02191782 -0.32389012 4294901760
0.8928709 0.021622539 -0.31889921 4294901760
0.88745046 -0.0078359842 -0.32057738 4294901760
0.88654709 -0.012745738 -0.32085708 4294901760
0.88383687 -0.027474999 -0.32169616 4294901760
0.88203001 -0.037294388 -0.32225555 4294901760
0.88112664 -0.042204142 -0.32253525 4294901760
0.87660968 -0.06675303 -0.32393372 4294901760
0.87570632 -0.071662784 -0.32421342 4294901760
0.87299609 -0.086392045 -0.3250525 4294901760
0.87215233 -0.091597199 -0.32034129 4294901760
0.87124896 -0.096506834 -0.32062098 4294901760
0.87034559 -0.10141659 -0.32090068 4294901760
0.86576891 -0.12566996 -0.32729006 4294901760
0.86486554 -0.13057971 -0.32756975 4294901760
0.86305881 -0.14039922 -0.32812914 4294901760
0.86215544 -0.14530897 -0.32840884 4294901760
0.86125195 -0.15021873 -0.32868853 4294901760
0.86040831 -0.15542388 -0.32397732 4294901760
0.85950494 -0.16033363 -0.32425702 4294901760
0.85498786 -0.18488228 -0.32565549 4294901760
0.85408449 -0.18979216 -0.32593518 4294901760
0.84962714 -0.21463621 -0.32234275 4294901760
0.84866405 -0.21925068 -0.32761335 4294901760
0.84872377 -0.21954596 -0.32262245 4294901760
0.84414721 -0.24379933 -0.32901183 4294901760
0.84324372 -0.24870908 -0.32929152 4294901760
0.83782339 -0.27816772 -0.33096969 4294901760
0.93938732 0.30267191 -0.30783558 4294901760
0.93848395 0.29776216 -0.30811527 4294901760
0.93752098 0.29314768 -0.31338584 4294901760
0.93758059 0.2928524 -0.30839497 4294901760
0.92854667 0.24375498 -0.31119189 4294901760
0.9276433 0.23884523 -0.31147158 4294901760
0.92673993 0.23393548 -0.31175128 4294901760
0.91866899 0.18945229 -0.30927762 4294901760
0.91776562 0.18454254 -0.30955732 4294901760
0.91686213 0.17963278 -0.30983701 4294901760
0.90782821 0.13053536 -0.31263396 4294901760
0.90692472 0.12562561 -0.31291366 4294901760
0.90596175 0.12101114 -0.31818429 4294901760
0.90602136 0.12071586 -0.31319335 4294901760
0.89963794 0.086642981 -0.32014212 4294901760
0.8978312 0.076823473 -0.32070151 4294901760
0.89698744 0.071618438 -0.3159903 4294901760
0.89608407 0.066708684 -0.31626999 4294901760
0.89427733 0.056889057 -0.31682938 4294901760
0.88699043 0.017906427 -0.32405788 4294901760
0.88705015 0.017611146 -0.31906694 4294901760
0.88608694 0.012996674 -0.32433757 4294901760
0.88614666 0.012701392 -0.31934664 4294901760
0.88518357 0.0080869198 -0.32461727 4294901760
0.8852433 0.0077916384 -0.31962633 4294901760
0.87801611 -0.031486273 -0.32186389 4294901760
0.87620926 -0.04130578 -0.32242328 4294901760
0.87530589 -0.046215534 -0.32270297 4294901760
0.87440252 -0.051125288 -0.32298267 4294901760
0.87259579 -0.060944915 -0.32354206 4294901760
0.86723506 -0.090698838 -0.32022932 4294901760
0.8653686 -0.10022283 -0.32577962 4294901760
0.86446524 -0.10513258 -0.32605931 4294901760
0.86175501 -0.11986184 -0.3268984 4294901760
0.85639429 -0.14961576 -0.32358566 4294901760
0.8554312 -0.15423012 -0.32885626 4294901760
0.85362434 -0.16404951 -0.32941565 4294901760
0.85097396 -0.17907417 -0.32526383 4294901760
0.84561324 -0.20882809 -0.32195109 4294901760
0.84470987 -0.21373785 -0.32223079 4294901760
0.84013319 -0.23799121 -0.32862017 4294901760
0.83380938 -0.27235949 -0.33057803 4294901760
0.93170023 0.28913641 -0.3135536 4294901760
0.93175983 0.28884113 -0.3085627 4294901760
0.93079686 0.28422666 -0.3138333 4294901760
0.93085647 0.28393137 -0.30884239 4294901760
0.92989337 0.2793169 -0.31411299 4294901760
0.9299531 0.27902162 -0.30912209 4294901760
0.92091918 0.2299242 -0.31191903 4294901760
0.92007542 0.22471917 -0.30720779 4294901760
0.9110415 0.17562163 -0.31000477 4294901760
0.91013801 0.17071187 -0.31028447 4294901760
0.900141 0.11699986 -0.31835201 4294901760
0.90020061 0.11670458 -0.31336111 4294901760
0.89929724 0.11179483 -0.31364077 4294901760
0.89833426 0.10718048 -0.3189114 4294901760
0.89652753 0.097360969 -0.31947079 4294901760
0.89562404 0.092451215 -0.31975049 4294901760
0.89026332 0.062697291 -0.31643772 4294901760
0.88935995 0.057787538 -0.31671745 4294901760
0.88845658 0.052877784 -0.31699711 4294901760
0.88484287 0.033238888 -0.31811589 4294901760
0.88032603 0.0086901188 -0.31951439 4294901760
0.87936282 0.0040756464 -0.32478499 4294901760
0.87845945 -0.0008341074 -0.32506469 4294901760
0.87755609 -0.0057438612 -0.32534438 4294901760
0.87400222 -0.025678158 -0.32147223 4294901760
0.86858177 -0.055136561 -0.3231504 4294901760
0.8676784 -0.060046434 -0.32343012 4294901760
0.86677504 -0.064956188 -0.32370982 4294901760
0.86316144 -0.084595203 -0.32482859 4294901760
0.85864449 -0.10914385 -0.32622707 4294901760
0.85774112 -0.11405361 -0.32650676 4294901760
0.85683775 -0.11896336 -0.32678646 4294901760
0.85238039 -0.14380753 -0.323194 4294901760
0.84786344 -0.16835618 -0.32459247 4294901760
0.84696007 -0.17326593 -0.32487217 4294901760
0.84159923 -0.20301986 -0.32155943 4294901760
0.83611917 -0.23218298 -0.32822853 4294901760
0.83069885 -0.2616415 -0.3299067 4294901760
0.82979548 -0.26655126 -0.3301864 4294901760
0.82527852 -0.29110003 -0.33158487 4294901760
0.92407274 0.27530551 -0.31428072 4294901760
0.92413235 0.27501023 -0.30928981 4294901760
0.92316926 0.27039576 -0.31456041 4294901760
0.92322898 0.27010047 -0.30956951 4294901760
0.92226589 0.265486 -0.31484011 4294901760
0.92232561 0.26519072 -0.3098492 4294901760
0.91425467 0.22070777 -0.30737555 4294901760
0.9133513 0.21579802 -0.30765525 4294901760
0.91244793 0.21088827 -0.30793494 4294901760
0.90431738 0.16670048 -0.31045219 4294901760
0.90335417 0.16208601 -0.31572279 4294901760
0.90341389 0.16179073 -0.31073189 4294901760
0.90251052 0.15688097 -0.31101158 4294901760
0.90154743 0.1522665 -0.31628218 4294901760
0.89251351 0.10316908 -0.31907913 4294901760
0.89161015 0.09825933 -0.31935883 4294901760
0.89070678 0.093349576 -0.31963852 4294901760
0.8862493 0.068505526 -0.31604609 4294901760
0.88263583 0.048866391 -0.31716487 4294901760
0.88173246 0.043956637 -0.31744456 4294901760
0.88082898 0.039047003 -0.31772426 4294901760
0.87534893 0.0098837614 -0.32439333 4294901760
0.87179506 -0.010050535 -0.32052121 4294901760
0.87089157 -0.014960289 -0.3208009 4294901760
0.8699882 -0.019870043 -0.3210806 4294901760
0.86456788 -0.049328446 -0.32275876 4294901760
0.86095428 -0.068967581 -0.32387754 4294901760
0.86005092 -0.073877335 -0.32415724 4294901760
0.85914755 -0.078787088 -0.32443693 4294901760
0.85463047 -0.10333574 -0.32583541 4294901760
0.8537271 -0.10824549 -0.3261151 4294901760
0.851017 -0.12297475 -0.32695419 4294901760
0.85011351 -0.12788451 -0.32723388 4294901760
0.84830666 -0.13770401 -0.32779327 4294901760
0.84740329 -0.14261377 -0.32807297 4294901760
0.84384942 -0.16254807 -0.32420084 4294901760
0.84294605 -0.16745782 -0.32448053 4294901760
0.84023595 -0.18218708 -0.32531962 4294901760
0.83933246 -0.18709695 -0.32559931 4294901760
0.83752561 -0.19691646 -0.3261587 4294901760
0.83210528 -0.22637498 -0.32783687 4294901760
0.82668495 -0.25583339 -0.32951504 4294901760
0.82674456 -0.25612867 -0.32452413 4294901760
0.82126451 -0.28529203 -0.33119321 4294901760
0.92818928 0.32530153 -0.3113718 4294901760
0.92728591 0.32039177 -0.3116515 4294901760
0.92638254 0.31548202 -0.31193119 4294901760
0.92644215 0.31518674 -0.30694032 4294901760
0.91644514 0.26147473 -0.31500787 4294901760
0.91650486 0.26117945 -0.31001696 4294901760
0.91554165 0.25656497 -0.31528756 4294901760
0.91560149 0.25626969 -0.31029665 4294901760
0.90572381 0.20196724 -0.30838236 4294901760
0.90482032 0.19705749 -0.30866206 4294901760
0.89572668 0.14825523 -0.31644994 4294901760
0.89488292 0.14305019 -0.3117387 4294901760
0.88759613 0.10406756 -0.31896719 4294901760
0.88488603 0.089338303 -0.31980625 4294901760
0.88398254 0.084428549 -0.32008594 4294901760
0.88217568 0.074609041 -0.32064533 4294901760
0.87681508 0.044855118 -0.3173326 4294901760
0.8749485 0.035331011 -0.32288292 4294901760
0.87500823 0.035035729 -0.31789199 4294901760
0.87404513 0.030421257 -0.32316262 4294901760
0.87410486 0.030125976 -0.31817168 4294901760
0.87314177 0.025511503 -0.32344231 4294901760
0.87133503 0.015691996 -0.3240017 4294901760
0.86416745 -0.023881316 -0.32124832 4294901760
0.86236072 -0.033700705 -0.32180771 4294901760
0.86145735 -0.038610458 -0.32208741 4294901760
0.86055398 -0.043520212 -0.3223671 4294901760
0.85513353 -0.072978854 -0.32404527 4294901760
0.85423017 -0.077888608 -0.32432497 4294901760
0.85242331 -0.087708116 -0.32488436 4294901760
0.85061646 -0.097527504 -0.32544374 4294901760
0.8506763 -0.097822905 -0.32045284 4294901760
0.84977281 -0.10273266 -0.32073253 4294901760
0.84429276 -0.13189578 -0.32740161 4294901760
0.84338939 -0.13680553 -0.3276813 4294901760
0.8424859 -0.14171529 -0.327961 4294901760
0.84158254 -0.14662504 -0.32824069 4294901760
0.83893204 -0.16164958 -0.32408887 4294901760
0.83351171 -0.19110823 -0.32576704 4294901760
0.83170485 -0.20092773 -0.32632643 4294901760
0.82809138 -0.22056675 -0.32744521 4294901760
0.82267094 -0.25002515 -0.32912338 4294901760
0.82273054 -0.25032043 -0.32413247 4294901760
0.81725061 -0.27948368 -0.33080155 4294901760
0.92056179 0.31147063 -0.31209895 4294901760
0.9206214 0.31117535 -0.30710804 4294901760
0.91965842 0.30656087 -0.31237864 4294901760
0.91971803 0.30626559 -0.30738774 4294901760
0.91875494 0.30165112 -0.31265834 4294901760
0.91881466 0.30135584 -0.30766743 4294901760
0.90881753 0.24764395 -0.31573498 4294901760
0.90887737 0.24734867 -0.31074408 4294901760
0.90797389 0.24243891 -0.31102377 4294901760
0.89899957 0.19304597 -0.30882981 4294901760
0.8980962 0.18813622 -0.30910951 4294901760
0.89719272 0.18322647 -0.3093892 4294901760
0.88906217 0.1390388 -0.31190646 4294901760
0.8881588 0.13412905 -0.31218615 4294901760
0.88719583 0.12951458 -0.31745675 4294901760
0.88725543 0.12921929 -0.31246585 4294901760
0.88358212 0.10987568 -0.31857553 4294901760
0.87906528 0.08532691 -0.31997401 4294901760
0.87816191 0.080417156 -0.3202537 4294901760
0.87725842 0.075507402 -0.32053339 4294901760
0.87635505 0.070597649 -0.32081309 4294901760
0.87370443 0.055572987 -0.31666127 4294901760
0.87280107 0.050663233 -0.31694096 4294901760
0.86828411 0.026114583 -0.31833944 4294901760
0.86732101 0.021500111 -0.32361004 4294901760
0.86641765 0.016590357 -0.32388973 4294901760
0.86551428 0.011680603 -0.32416943 4294901760
0.86190069 -0.0079584122 -0.32528821 4294901760
0.85744333 -0.032802343 -0.32169577 4294901760
0.85653996 -0.037712097 -0.32197547 4294901760
0.85473323 -0.047531605 -0.32253486 4294901760
0.85111952 -0.067170739 -0.32365364 4294901760
0.84660268 -0.091719389 -0.32505211 4294901760
0.84569919 -0.096629143 -0.32533181 4294901760
0.84575891 -0.096924543 -0.32034087 4294901760
0.84479582 -0.1015389 -0.3256115 4294901760
0.84027886 -0.12608767 -0.32700998 4294901760
0.83576179 -0.15063643 -0.32840845 4294901760
0.83491814 -0.15584159 -0.32369721 4294901760
0.82943809 -0.18500471 -0.33036631 4294901760
0.82949781 -0.18530011 -0.32537541 4294901760
0.8258841 -0.20493913 -0.32649419 4294901760
0.82498074 -0.20984888 -0.32677388 4294901760
0.82407737 -0.21475863 -0.32705358 4294901760
0.81865704 -0.24421704 -0.32873175 4294901760
0.81414008 -0.26876581 -0.33013022 4294901760
0.81323671 -0.27367568 -0.33040991 4294901760
0.91293418 0.29763973 -0.31282607 4294901760
0.91299391 0.29734445 -0.30783516 4294901760
0.91203082 0.29272997 -0.31310576 4294901760
0.91209054 0.29243469 -0.30811486 4294901760
0.91112733 0.28782022 -0.31338546 4294901760
0.90215313 0.23842752 -0.3111915 4294901760
0.90124977 0.23351777 -0.31147119 4294901760
0.90034628 0.22860801 -0.31175089 4294901760
0.89137197 0.17921519 -0.30955693 4294901760
0.8904686 0.17430544 -0.30983663 4294901760
0.88137507 0.12550318 -0.31762448 4294901760
0.88143468 0.1252079 -0.31263357 4294901760
0.88047171 0.12059343 -0.31790417 4294901760
0.88053131 0.12029815 -0.31291327 4294901760
0.87956822 0.11568367 -0.31818387 4294901760
0.87505126 0.091135025 -0.31958234 4294901760
0.87059391 0.066290855 -0.31598991 4294901760
0.86969054 0.061381102 -0.31626961 4294901760
0.86330712 0.027308226 -0.32321838 4294901760
0.85969353 0.0076692104 -0.32433715 4294901760
0.85879016 0.0027594566 -0.32461685 4294901760
0.85788679 -0.0021502972 -0.32489654 4294901760
0.84891248 -0.051542997 -0.32270259 4294901760
0.84800911 -0.05645287 -0.32298228 4294901760
0.84710562 -0.061362624 -0.32326198 4294901760
0.84264827 -0.086206794 -0.31966954 4294901760
0.83897507 -0.10555029 -0.32577923 4294901760
0.8380717 -0.11046004 -0.32605892 4294901760
0.83716822 -0.1153698 -0.32633862 4294901760
0.83626485 -0.12027955 -0.32661831 4294901760
0.83180761 -0.14512372 -0.32302588 4294901760
0.82903767 -0.15955746 -0.32885587 4294901760
0.8281343 -0.16446722 -0.32913557 4294901760
0.82632756 -0.17428672 -0.32969496 4294901760
0.82638717 -0.17458212 -0.32470405 4294901760
0.82542419 -0.17919648 -0.32997465 4294901760
0.8254838 -0.17949188 -0.32498375 4294901760
0.82096684 -0.20404077 -0.32638222 4294901760
0.81825662 -0.21877003 -0.3272213 4294901760
0.81644988 -0.22858942 -0.32778069 4294901760
0.81464314 -0.23840892 -0.32834008 4294901760
0.8092227 -0.26786745 -0.33001825 4294901760
0.90530658 0.28380895 -0.31355321 4294901760
0.90440321 0.27889919 -0.31383291 4294901760
0.90349984 0.27398944 -0.3141126 4294901760
0.89452553 0.22459674 -0.31191862 4294901760
0.89362216 0.21968699 -0.31219834 4294901760
0.89368176 0.2193917 -0.30720741 4294901760
0.89271879 0.21477723 -0.31247801 4294901760
0.8927784 0.21448195 -0.3074871 4294901760
0.88458824 0.17058945 -0.31499529 4294901760
0.88464785 0.17029417 -0.31000435 4294901760
