# .PCD v0.7 - Point Cloud Data file format
VERSION 0.7
FIELDS x y z rgb
SIZE 4 4 4 4
TYPE F F F U
COUNT 1 1 1 1
WIDTH 1095
HEIGHT 1
VIEWPOINT 0 0 0 1 0 0 0
POINTS 1095
DATA ascii
1.2446084 0.43220687 -0.17043613 4278255360
1.2447829 0.44220519 -0.1704032 4278255360
1.2449574 0.45220375 -0.17037027 4278255360
1.2450447 0.45720267 -0.17035379 4278255360
1.245132 0.46220207 -0.17033733 4278255360
1.2247581 -0.92791021 -0.094854042 4278255360
1.2453146 0.18217397 -0.17618944 4278255360
1.2456636 0.20217085 -0.17612357 4278255360
1.2458382 0.21216917 -0.17609064 4278255360
1.2498693 0.44711709 -0.17031716 4278255360
1.2232485 -1.3527324 -0.16117765 4278255360
1.223423 -1.342734 -0.16114472 4278255360
1.2235975 -1.3327355 -0.16111176 4278255360
1.229425 -0.94301057 -0.089834407 4278255360
1.2504005 0.18708563 -0.17610343 4278255360
1.2504878 0.19208503 -0.17608695 4278255360
1.2506623 0.20208335 -0.17605402 4278255360
1.2507496 0.20708275 -0.17603754 4278255360
1.2509241 0.21708107 -0.1760046 4278255360
1.2280731 -1.3628182 -0.16114102 4278255360
1.2281604 -1.3578191 -0.16112454 4278255360
1.2282476 -1.3528199 -0.16110809 4278255360
1.2284222 -1.3428215 -0.16107516 4278255360
1.2285094 -1.3378222 -0.16105868 4278255360
1.2285962 -1.332823 -0.1610422 4278255360
1.2344241 -0.94309795 -0.089764848 4278255360
1.2345986 -0.93309963 -0.089731917 4278255360
1.2346859 -0.92810035 -0.089715466 4278255360
1.2552252 0.17699957 -0.1760668 4278255360
1.255487 0.19199753 -0.17601739 4278255360
1.2557483 0.20699525 -0.17596798 4278255360
1.2558355 0.21199417 -0.17595153 4278255360
1.2559228 0.21699357 -0.17593504 4278255360
1.2328796 -1.3778882 -0.16612034 4278255360
1.2329669 -1.3728889 -0.16610385 4278255360
1.2331586 -1.3579066 -0.16105495 4278255360
1.2333331 -1.3479081 -0.16102202 4278255360
1.2335076 -1.3379097 -0.16098909 4278255360
1.2337694 -1.3229121 -0.16093968 4278255360
1.2603106 0.18191147 -0.17598073 4278255360
1.2603979 0.18691063 -0.17596428 4278255360
1.2604852 0.19191003 -0.1759478 4278255360
1.2606597 0.20190835 -0.17591487 4278255360
1.2380705 -1.3629932 -0.16100188 4278255360
1.2381577 -1.3579941 -0.1609854 4278255360
1.238245 -1.3529949 -0.16096894 4278255360
1.2385068 -1.3379972 -0.16091953 4278255360
1.2386813 -1.3279989 -0.1608866 4278255360
1.2387686 -1.3229996 -0.16087012 4278255360
1.2655716 0.19682169 -0.17586176 4278255360
1.2656589 0.20182085 -0.17584531 4278255360
1.2657461 0.20682025 -0.17582883 4278255360
1.2346573 -1.7732905 -0.072291926 4278255360
1.2347445 -1.7682914 -0.072275475 4278255360
1.2348318 -1.7632922 -0.072258994 4278255360
1.2350063 -1.7532936 -0.072226062 4278255360
1.2350936 -1.7482945 -0.072209582 4278255360
1.2427897 -1.3830624 -0.16599767 4278255360
1.242877 -1.3780632 -0.16598122 4278255360
1.2429643 -1.3730638 -0.16596474 4278255360
1.2429819 -1.3680799 -0.1609488 4278255360
1.2432437 -1.3530823 -0.16089939 4278255360
1.243331 -1.348083 -0.16088291 4278255360
1.2435927 -1.3330855 -0.16083349 4278255360
1.2479634 -1.3731513 -0.16589515 4278255360
1.2481551 -1.358169 -0.16084625 4278255360
1.2484169 -1.3431714 -0.16079687 4278255360
1.2487659 -1.3231745 -0.16073097 4278255360
1.2446551 -1.7734655 -0.072152779 4278255360
1.2447424 -1.7684664 -0.072136328 4278255360
1.2448292 -1.7634671 -0.072119847 4278255360
1.2527876 -1.3832372 -0.16585852 4278255360
1.2528749 -1.3782381 -0.16584207 4278255360
1.2530665 -1.3632556 -0.16079317 4278255360
1.2532411 -1.3532572 -0.16076024 4278255360
1.2533283 -1.348258 -0.16074376 4278255360
1.2535028 -1.3382596 -0.16071083 4278255360
1.2535901 -1.3332604 -0.16069435 4278255360
1.2536774 -1.3282611 -0.16067789 4278255360
1.2495666 -1.7785522 -0.072099671 4278255360
1.2497411 -1.7685537 -0.072066739 4278255360
1.257699 -1.388324 -0.16580541 4278255360
1.2580481 -1.3683271 -0.16573952 4278255360
1.2580652 -1.3633431 -0.16072358 4278255360
1.2581525 -1.3583438 -0.1607071 4278255360
1.258327 -1.3483455 -0.16067417 4278255360
1.2585015 -1.3383471 -0.16064124 4278255360
1.2543907 -1.7886381 -0.072063044 4278255360
1.2545652 -1.7786397 -0.072030112 4278255360
1.2546525 -1.7736404 -0.072013631 4278255360
1.2626977 -1.3884114 -0.16573586 4278255360
1.2628722 -1.378413 -0.16570292 4278255360
1.2629595 -1.3734138 -0.16568644 4278255360
1.2631512 -1.3584313 -0.16063754 4278255360
1.263413 -1.3434337 -0.16058816 4278255360
1.2636747 -1.3284361 -0.16053875 4278255360
1.3139129 1.5461257 -0.15606903 4278255360
1.3140001 1.551125 -0.15605257 4278255360
1.3140874 1.5561242 -0.15603609 4278255360
1.3142619 1.5661228 -0.15600316 4278255360
1.2677836 -1.3834996 -0.16564982 4278255360
1.2681327 -1.3635027 -0.16558395 4278255360
1.2682199 -1.3585036 -0.16556747 4278255360
1.2682376 -1.3535197 -0.16055153 4278255360
1.268569 -1.3385067 -0.16550161 4278255360
1.3189988 1.5510375 -0.15598302 4278255360
1.3190861 1.5560367 -0.15596654 4278255360
1.3192606 1.5660353 -0.1559336 4278255360
1.2643881 -1.788813 -0.071923897 4278255360
1.2644753 -1.7838138 -0.071907416 4278255360
1.2645626 -1.7788146 -0.071890965 4278255360
1.2646499 -1.7738154 -0.071874484 4278255360
1.2727823 -1.3835871 -0.16558023 4278255360
1.2729568 -1.3735887 -0.1655473 4278255360
1.2730441 -1.3685894 -0.16553082 4278255360
1.2733059 -1.3535919 -0.16548143 4278255360
1.2734804 -1.3435934 -0.16544847 4278255360
1.2736549 -1.333595 -0.16541554 4278255360
1.323823 1.5409517 -0.15594636 4278255360
1.3239102 1.5459507 -0.15592988 4278255360
1.3241024 1.5609331 -0.15088101 4278255360
1.3242593 1.5659478 -0.15586402 4278255360
1.3243465 1.5709469 -0.15584753 4278255360
1.2778683 -1.3786755 -0.16549422 4278255360
1.2780428 -1.3686769 -0.16546126 4278255360
1.2782173 -1.3586786 -0.16542833 4278255360
1.2783046 -1.3536794 -0.16541187 4278255360
1.2783918 -1.3486801 -0.16539539 4278255360
1.2785664 -1.3386817 -0.16536246 4278255360
1.3287349 1.5358648 -0.15589328 4278255360
1.3288393 1.5458479 -0.15086086 4278255360
1.3290138 1.5558465 -0.1508279 4278255360
1.3291883 1.565845 -0.15079497 4278255360
1.3293452 1.5708594 -0.15577798 4278255360
1.3295197 1.5808578 -0.15574504 4278255360
1.2743855 -1.788988 -0.071784779 4278255360
1.27456 -1.7789896 -0.071751848 4278255360
1.2830415 -1.3687644 -0.1653917 4278255360
1.283216 -1.358766 -0.16535877 4278255360
1.2833905 -1.3487675 -0.16532584 4278255360
1.3336458 1.5307782 -0.15584017 4278255360
1.3337507 1.5407615 -0.15080775 4278255360
1.3339252 1.5507598 -0.15077482 4278255360
1.3340125 1.555759 -0.15075834 4278255360
1.3342743 1.5707567 -0.15070896 4278255360
1.3345184 1.5807703 -0.15567549 4278255360
1.3346057 1.5857697 -0.15565903 4278255360
1.2792974 -1.7940745 -0.071731642 4278255360
1.2794719 -1.7840762 -0.07169871 4278255360
1.2796464 -1.7740778 -0.071665779 4278255360
1.2798209 -1.7640793 -0.071632847 4278255360
1.3385749 1.5306754 -0.1507711 4278255360
1.3387494 1.540674 -0.15073816 4278255360
1.3390985 1.5606706 -0.1506723 4278255360
1.3391857 1.56567 -0.15065582 4278255360
1.3393602 1.5756683 -0.15062289 4278255360
1.3395176 1.5806828 -0.1556059 4278255360
1.284296 -1.794162 -0.071662083 4278255360
1.2844706 -1.7841637 -0.071629152 4278255360
1.2845578 -1.7791644 -0.071612701 4278255360
1.3302426 0.750772 -0.17326854 4278255360
1.3305044 0.76576948 -0.17321913 4278255360
1.3305917 0.77076888 -0.17320268 4278255360
1.3436437 1.5306032 -0.15570103 4278255360
1.3436613 1.5355871 -0.15068509 4278255360
1.3437486 1.5405865 -0.15066861 4278255360
1.3438358 1.5455854 -0.15065216 4278255360
1.343853 1.5505695 -0.14563619 4278255360
1.3441849 1.5655825 -0.15058626 4278255360
1.3443589 1.5755808 -0.15055333 4278255360
1.3446035 1.5855947 -0.15551989 4278255360
1.3350668 0.74068642 -0.17323191 4278255360
1.3351541 0.74568534 -0.17321546 4278255360
1.3354154 0.7606833 -0.17316605 4278255360
1.3355026 0.76568222 -0.17314957 4278255360
1.3356771 0.77568078 -0.17311664 4278255360
1.3357644 0.78067994 -0.17310019 4278255360
1.3485727 1.5305007 -0.15063198 4278255360
1.3488517 1.5504823 -0.14556663 4278255360
1.3490958 1.5604959 -0.15053318 4278255360
1.3492703 1.5704944 -0.15050025 4278255360
1.3494449 1.5804927 -0.15046729 4278255360
1.3399782 0.73559952 -0.17317881 4278255360
1.3401527 0.74559784 -0.17314588 4278255360
1.3403273 0.7555964 -0.17311294 4278255360
1.3404145 0.7605958 -0.17309646 4278255360
1.3406763 0.77559328 -0.17304705 4278255360
1.353641 1.5304284 -0.15556188 4278255360
1.3537459 1.5404117 -0.15052946 4278255360
1.3538332 1.5454106 -0.15051301 4278255360
1.3540249 1.5603931 -0.14546411 4278255360
1.3543568 1.5754061 -0.15041418 4278255360
1.3545136 1.5804205 -0.15539719 4278255360
1.3546009 1.5854199 -0.15538074 4278255360
1.3451514 0.74551034 -0.17307632 4278255360
1.3453259 0.7555089 -0.17304339 4278255360
1.3455005 0.76550722 -0.17301042 4278255360
1.345675 0.77550578 -0.17297749 4278255360
1.3458495 0.7855041 -0.17294456 4278255360
1.3586574 1.5353248 -0.15047638 4278255360
1.358849 1.5503073 -0.14542748 4278255360
1.3590937 1.5603209 -0.15039404 4278255360
1.3591809 1.5653203 -0.15037756 4278255360
1.3593554 1.5753186 -0.15034463 4278255360
1.3595996 1.5853324 -0.15531118 4278255360
1.3641882 1.900084 -0.089280322 4278255360
1.3498883 0.73042536 -0.17305614 4278255360
1.3499756 0.73542452 -0.17303969 4278255360
1.3501501 0.74542284 -0.17300676 4278255360
1.3502374 0.75042224 -0.17299028 4278255360
1.3504119 0.7604208 -0.17295735 4278255360
1.3505168 0.77040386 -0.16792493 4278255360
1.3507609 0.78041744 -0.17289148 4278255360
1.3508482 0.7854166 -0.172875 4278255360
1.3509355 0.790416 -0.17285852 4278255360
1.3637433 1.5402367 -0.15039034 4278255360
1.3638306 1.5452356 -0.15037389 4278255360
1.3640051 1.5552342 -0.15034093 4278255360
1.3640924 1.5602334 -0.15032448 4278255360
1.3643541 1.5752311 -0.15027507 4278255360
1.364511 1.5802455 -0.15525807 4278255360
1.3549743 0.73533702 -0.1729701 4278255360
1.3552361 0.75033474 -0.17292069 4278255360
1.3553233 0.7553339 -0.17290424 4278255360
1.3554277 0.76531696 -0.16787179 4278255360
1.3556724 0.77533078 -0.17283835 4278255360
1.3686547 1.5351498 -0.15033723 4278255360
1.3688293 1.5451481 -0.1503043 4278255360
1.3692656 1.5701444 -0.15022196 4278255360
1.3737669 1.8798971 -0.084207579 4278255360
1.3598862 0.73025036 -0.17291699 4278255360
1.3600602 0.74024892 -0.17288406 4278255360
1.3601475 0.74524784 -0.17286761 4278255360
1.3604093 0.7602458 -0.1728182 4278255360
1.3604269 0.76522946 -0.16780223 4278255360
1.3605142 0.77022886 -0.16778578 4278255360
1.3607583 0.78024244 -0.17275234 4278255360
1.3609328 0.790241 -0.17271937 4278255360
1.3738108 1.540077 -0.15525068 4278255360
1.3739152 1.55006 -0.15021826 4278255360
1.3740025 1.5550592 -0.15020178 4278255360
1.3740897 1.5600584 -0.15018533 4278255360
1.3743343 1.5700722 -0.15515186 4278255360
1.3744216 1.5750713 -0.15513541 4278255360
1.3745089 1.5800705 -0.15511893 4278255360
1.3785915 1.8698115 -0.084170952 4278255360
1.3788528 1.884809 -0.08412154 4278255360
1.3649716 0.73516202 -0.17283098 4278255360
1.3650589 0.74016142 -0.1728145 4278255360
1.3651462 0.74516034 -0.17279805 4278255360
1.3652334 0.75015974 -0.17278157 4278255360
1.3655128 0.77014136 -0.16771622 4278255360
1.365757 0.78015494 -0.17268278 4278255360
1.3660188 0.79515266 -0.17263336 4278255360
1.3790011 1.5549717 -0.15013222 4278255360
1.3792458 1.5649855 -0.15509878 4278255360
1.3700581 0.74007392 -0.17274491 4278255360
1.3702326 0.75007224 -0.17271198 4278255360
1.3704071 0.7600708 -0.17267905 4278255360
1.3704944 0.76506972 -0.17266257 4278255360
1.3706689 0.77506828 -0.17262964 4278255360
1.3708429 0.7850666 -0.17259671 4278255360
1.3709302 0.790066 -0.17258023 4278255360
1.3842444 1.564898 -0.15502919 4278255360
1.3748822 0.7299881 -0.17270829 4278255360
1.3749695 0.73498726 -0.17269184 4278255360
1.375144 0.74498558 -0.17265891 4278255360
1.3753185 0.75498414 -0.17262597 4278255360
1.3755798 0.76998186 -0.17257656 4278255360
1.3756671 0.77498102 -0.17256008 4278255360
1.3759289 0.78997874 -0.17251067 4278255360
1.3801427 0.74489808 -0.17258932 4278255360
1.3802299 0.74989748 -0.17257284 4278255360
1.3803172 0.75489664 -0.17255639 4278255360
1.3804045 0.75989604 -0.1725399 4278255360
1.380579 0.76989436 -0.17250697 4278255360
1.3807535 0.77989268 -0.17247404 4278255360
1.3853159 0.75480914 -0.17248683 4278255360
1.3854032 0.75980854 -0.17247035 4278255360
1.3997722 1.3046045 -0.16060679 4278255360
1.3714948 -0.61015046 -0.17684348 4278255360
1.4046841 1.2995176 -0.16055368 4278255360
1.4048586 1.3095162 -0.16052072 4278255360
1.4049459 1.3145154 -0.16050427 4278255360
1.3762317 -0.62523568 -0.17682333 4278255360
1.3764057 -0.61523724 -0.17679037 4278255360
1.3765802 -0.6052388 -0.17675744 4278255360
1.409421 1.2844324 -0.1605335 4278255360
1.4095955 1.294431 -0.16050057 4278255360
1.40977 1.3044295 -0.16046764 4278255360
1.4098573 1.3094287 -0.16045116 4278255360
1.4100318 1.319427 -0.16041823 4278255360
1.3810558 -0.63532138 -0.17678671 4278255360
1.3813176 -0.62032378 -0.17673729 4278255360
1.3814049 -0.61532462 -0.17672081 4278255360
1.3815794 -0.60532618 -0.17668788 4278255360
1.3817539 -0.59532773 -0.17665495 4278255360
1.4145069 1.2893443 -0.16044749 4278255360
1.4145942 1.2943435 -0.16043101 4278255360
1.4147687 1.304342 -0.16039808 4278255360
1.4151177 1.3243389 -0.16033222 4278255360
1.3859673 -0.64040816 -0.17673357 4278255360
1.3861418 -0.63040972 -0.17670064 4278255360
1.3863163 -0.62041128 -0.17666771 4278255360
1.3864908 -0.61041284 -0.17663477 4278255360
1.3867526 -0.59541523 -0.17658536 4278255360
1.3868399 -0.59041607 -0.17656888 4278255360
1.4194183 1.2842574 -0.16039436 4278255360
1.4195929 1.294256 -0.16036142 4278255360
1.4198546 1.3092537 -0.16031201 4278255360
1.4199419 1.3142529 -0.16029556 4278255360
1.3908787 -0.64549494 -0.17668049 4278255360
1.3914022 -0.61549962 -0.17658167 4278255360
1.3915768 -0.60550117 -0.17654873 4278255360
1.3917513 -0.59550273 -0.1765158 4278255360
1.424417 1.2841702 -0.1603248 4278255360
1.4245043 1.2891695 -0.16030835 4278255360
1.4245915 1.2941687 -0.16029187 4278255360
1.4247661 1.3041673 -0.16025893 4278255360
1.4248533 1.3091664 -0.16024245 4278255360
1.4249406 1.3141656 -0.160226 4278255360
1.4251151 1.3241642 -0.16019307 4278255360
1.3959651 -0.64058316 -0.17659445 4278255360
1.3961396 -0.63058472 -0.17656152 4278255360
1.3962269 -0.62558556 -0.17654507 4278255360
1.3964882 -0.61058784 -0.17649566 4278255360
1.3965755 -0.60558867 -0.17647918 4278255360
1.39675 -0.59559023 -0.17644624 4278255360
1.3968372 -0.59059107 -0.17642976 4278255360
1.4294162 1.2840827 -0.16025524 4278255360
1.4295034 1.2890821 -0.16023879 4278255360
1.4297652 1.3040798 -0.16018938 4278255360
1.4299397 1.3140781 -0.16015644 4278255360
1.4007893 -0.6506691 -0.17655779 4278255360
1.4009633 -0.64067054 -0.17652486 4278255360
1.4012251 -0.62567294 -0.17647548 4278255360
1.4013124 -0.62067366 -0.176459 4278255360
1.4346766 1.2989929 -0.16013627 4278255360
1.4348512 1.3089914 -0.16010331 4278255360
1.4350252 1.3189898 -0.16007037 4278255360
1.4057879 -0.6507566 -0.17648824 4278255360
1.4058752 -0.64575732 -0.17647178 4278255360
1.406137 -0.6307596 -0.17642237 4278255360
1.4063115 -0.62076116 -0.17638944 4278255360
1.4063988 -0.615762 -0.17637296 4278255360
1.406486 -0.61076272 -0.17635651 4278255360
1.4066606 -0.60076439 -0.17632358 4278255360
1.4067478 -0.59576511 -0.1763071 4278255360
1.4394135 1.2839077 -0.16011609 4278255360
1.4395008 1.2889071 -0.16009964 4278255360
1.4396753 1.2989054 -0.16006671 4278255360
1.4397626 1.3039048 -0.16005023 4278255360
1.4398499 1.3089039 -0.16003375 4278255360
1.4400244 1.3189023 -0.16000082 4278255360
1.4108739 -0.64584482 -0.17640223 4278255360
1.4109612 -0.64084554 -0.17638575 4278255360
1.4110484 -0.63584626 -0.17636929 4278255360
1.4111357 -0.6308471 -0.17635281 4278255360
1.4113975 -0.61584949 -0.1763034 4278255360
1.4114847 -0.61085021 -0.17628695 4278255360
1.4444995 1.2888196 -0.16003008 4278255360
1.4451103 1.3238142 -0.15991481 4278255360
1.4161344 -0.6309346 -0.17628323 4278255360
1.4162216 -0.62593544 -0.17626677 4278255360
1.4163961 -0.61593699 -0.17623381 4278255360
1.4496727 1.2987304 -0.15992756 4278255360
1.4498472 1.3087289 -0.1598946 4278255360
1.4499345 1.3137281 -0.15987815 4278255360
1.4213076 -0.62102354 -0.17618074 4278255360
1.5007501 1.0777876 -0.15488736 4278255360
1.5008373 1.082787 -0.15487091 4278255360
1.5010991 1.0977845 -0.1548215 4278255360
1.5056615 1.0727012 -0.15483429 4278255360
1.505836 1.0826998 -0.15480135 4278255360
1.5059233 1.0876987 -0.15478487 4278255360
1.5060978 1.0976973 -0.15475194 4278255360
1.5104856 1.0626154 -0.15479766 4278255360
1.5105729 1.0676143 -0.15478118 4278255360
1.510922 1.0876112 -0.15471531 4278255360
1.5110965 1.0976098 -0.15468238 4278255360
1.5111837 1.1026089 -0.1546659 4278255360
1.5016646 0.26268435 -0.16736196 4278255360
1.5018392 0.27268267 -0.16732903 4278255360
1.5157466 1.0775254 -0.15467866 4278255360
1.5158339 1.0825248 -0.15466221 4278255360
1.5160084 1.0925231 -0.15462928 4278255360
1.5161829 1.1025214 -0.15459631 4278255360
1.5064015 0.24759912 -0.16734181 4278255360
1.5064888 0.25259852 -0.16732536 4278255360
1.5069251 0.27759457 -0.16724302 4278255360
1.5204835 1.0624404 -0.15465851 4278255360
1.5205708 1.0674393 -0.15464203 4278255360
1.5207453 1.0774379 -0.1546091 4278255360
1.5209193 1.0874362 -0.15457617 4278255360
1.5210938 1.0974348 -0.15454324 4278255360
1.5212684 1.1074331 -0.1545103 4278255360
1.4768319 -1.6973188 -0.12868296 4278255360
1.4769192 -1.6923195 -0.12866651 4278255360
1.511662 0.26250935 -0.16722284 4278255360
1.5117493 0.26750875 -0.16720639 4278255360
1.5120111 0.28250647 -0.16715698 4278255360
1.5120983 0.28750539 -0.16714053 4278255360
1.5255694 1.0673518 -0.15457247 4278255360
1.5256567 1.0723512 -0.15455602 4278255360
1.5258312 1.0823498 -0.15452309 4278255360
1.5259185 1.0873487 -0.15450661 4278255360
1.5260057 1.0923481 -0.15449016 4278255360
1.5261803 1.1023464 -0.1544572 4278255360
1.5262675 1.1073456 -0.15444075 4278255360
1.4817433 -1.7024055 -0.12862985 4278255360
1.4819179 -1.6924069 -0.12859692 4278255360
1.4820924 -1.6824086 -0.12856396 4278255360
1.4821796 -1.6774094 -0.1285475 4278255360
1.5163817 0.24244022 -0.17221864 4278255360
1.5163989 0.24742413 -0.16720267 4278255360
1.5164862 0.25242352 -0.16718622 4278255360
1.5169225 0.27741957 -0.16710387 4278255360
1.517097 0.28741789 -0.16707094 4278255360
1.5307426 1.0772629 -0.15446995 4278255360
1.5310917 1.0972598 -0.15440409 4278255360
1.5312662 1.1072581 -0.15437116 4278255360
1.4870038 -1.6874952 -0.12851088 4278255360
1.4871783 -1.6774969 -0.12847795 4278255360
1.4872656 -1.6724976 -0.12846147 4278255360
1.5213976 0.24733663 -0.16713311 4278255360
1.5215721 0.25733519 -0.16710018 4278255360
1.5216594 0.26233435 -0.1670837 4278255360
1.5218339 0.27233267 -0.16705076 4278255360
1.5219212 0.27733207 -0.16703431 4278255360
1.5220957 0.28733039 -0.16700138 4278255360
1.5354795 1.0621779 -0.15444981 4278255360
1.5356541 1.0721762 -0.15441687 4278255360
1.5357413 1.0771754 -0.15440039 4278255360
1.5360031 1.0921731 -0.15435101 4278255360
1.5361776 1.1021714 -0.15431805 4278255360
1.4917407 -1.7025805 -0.12849073 4278255360
1.4919152 -1.6925819 -0.1284578 4278255360
1.4920025 -1.6875827 -0.12844132 4278255360
1.492177 -1.6775843 -0.12840839 4278255360
1.4922643 -1.672585 -0.12839191 4278255360
1.5262218 0.23725057 -0.16709648 4278255360
1.5264835 0.25224853 -0.1670471 4278255360
1.5265708 0.25724769 -0.16703062 4278255360
1.5267453 0.26724625 -0.16699769 4278255360
1.5270071 0.28224397 -0.16694827 4278255360
1.5404782 1.0620904 -0.15438025 4278255360
1.5405655 1.0670893 -0.15436377 4278255360
1.5406528 1.0720887 -0.15434732 4278255360
1.5408273 1.0820873 -0.15431438 4278255360
1.5409145 1.0870862 -0.1542979 4278255360
1.5410018 1.0920856 -0.15428145 4278255360
1.5410891 1.0970848 -0.15426497 4278255360
1.4966521 -1.7076671 -0.12843759 4278255360
1.4967394 -1.702668 -0.12842114 4278255360
1.4968266 -1.6976686 -0.12840466 4278255360
1.4970012 -1.6876702 -0.12837173 4278255360
1.4973502 -1.6676733 -0.12830587 4278255360
1.4974375 -1.6626742 -0.12828939 4278255360
1.5045571 -1.2627068 -0.13697092 4278255360
1.5313954 0.24716187 -0.16699396 4278255360
1.5314827 0.25216126 -0.16697751 4278255360
1.53157 0.25716043 -0.16696103 4278255360
1.5317445 0.26715899 -0.1669281 4278255360
1.5318317 0.27215791 -0.16691162 4278255360
1.5454774 1.0620031 -0.15431066 4278255360
1.5456514 1.0720015 -0.15427773 4278255360
1.5460877 1.0969975 -0.15419538 4278255360
1.5018258 -1.6977561 -0.1283351 4278255360
1.5019131 -1.6927569 -0.12831865 4278255360
1.5020876 -1.6827585 -0.12828569 4278255360
1.5021749 -1.6777592 -0.12826924 4278255360
1.5023494 -1.6677608 -0.12823631 4278255360
1.5092072 -1.282791 -0.13696726 4278255360
1.5093818 -1.2727926 -0.13693433 4278255360
1.5096431 -1.2577951 -0.13688491 4278255360
1.5097303 -1.2527959 -0.13686843 4278255360
1.5363941 0.24707437 -0.1669244 4278255360
1.5365686 0.25707293 -0.16689147 4278255360
1.5369 0.27208567 -0.17184155 4278255360
1.5507379 1.0769131 -0.15419169 4278255360
1.5508251 1.0819125 -0.15417524 4278255360
1.5509124 1.0869114 -0.15415876 4278255360
1.5510869 1.09691 -0.15412582 4278255360
1.506999 -1.6878452 -0.12823258 4278255360
1.5070863 -1.682846 -0.1282161 4278255360
1.5072603 -1.6728475 -0.12818317 4278255360
1.51438 -1.2728801 -0.13686474 4278255360
1.5145545 -1.2628818 -0.13683178 4278255360
1.5149035 -1.2428849 -0.13676591 4278255360
1.5417242 0.26199985 -0.17180489 4278255360
1.5556493 1.0718265 -0.15413858 4278255360
1.5559111 1.0868239 -0.15408917 4278255360
1.5559983 1.0918233 -0.15407272 4278255360
1.5118232 -1.6979311 -0.12819596 4278255360
1.5119104 -1.6929318 -0.12817951 4278255360
1.5123467 -1.6679357 -0.12809716 4278255360
1.5196409 -1.2579699 -0.13674577 4278255360
1.5169964 -1.6880201 -0.12809347 4278255360
1.5170836 -1.6830208 -0.12807699 4278255360
1.5171709 -1.6780217 -0.12806053 4278255360
1.5173454 -1.6680232 -0.1280276 4278255360
1.5754728 -1.5089343 -0.15173279 4278255360
1.5854702 -1.5091093 -0.15159364 4278255360
1.5903816 -1.514196 -0.15154056 4278255360
1.5952935 -1.5192826 -0.15148742 4278255360
1.5953808 -1.5142834 -0.15147097 4278255360
1.5955548 -1.504285 -0.15143804 4278255360
1.6055541 -0.93934369 -0.1595761 4278255360
1.6528077 1.7801814 -0.13561897 4278255360
1.6531568 1.8001785 -0.13555311 4278255360
1.6002917 -1.5193701 -0.15141787 4278255360
1.6004663 -1.5093718 -0.15138493 4278255360
1.6102905 -0.95442879 -0.15955596 4278255360
1.610465 -0.94443035 -0.15952303 4278255360
1.6106396 -0.93443191 -0.15949006 4278255360
1.6172533 -0.55947578 -0.16325448 4278255360
1.6174278 -0.54947734 -0.16322155 4278255360
1.6176896 -0.53447974 -0.16317214 4278255360
1.6579809 1.7900925 -0.13551648 4278255360
1.6583123 1.8051052 -0.14046656 4278255360
1.6584868 1.815104 -0.14043362 4278255360
1.6053782 -1.5144584 -0.15133186 4278255360
1.6152024 -0.95951545 -0.15950285 4278255360
1.6153769 -0.94951701 -0.15946992 4278255360
1.6156387 -0.93451941 -0.15942051 4278255360
1.615726 -0.92952025 -0.15940405 4278255360
1.6217985 -0.58954334 -0.16828321 4278255360
1.6218858 -0.58454406 -0.16826673 4278255360
1.621973 -0.5795449 -0.16825028 4278255360
1.6220775 -0.56956172 -0.16321786 4278255360
1.6223392 -0.55456412 -0.16316845 4278255360
1.6226883 -0.53456724 -0.16310258 4278255360
1.6625433 1.7650089 -0.13552926 4278255360
1.6626306 1.7700086 -0.13551278 4278255360
1.6627178 1.7750077 -0.13549633 4278255360
1.6628923 1.785006 -0.13546337 4278255360
1.6632414 1.8050027 -0.13539751 4278255360
1.6633286 1.8100019 -0.13538103 4278255360
1.6635733 1.8200159 -0.14034759 4278255360
1.6104641 -1.5095466 -0.15124579 4278255360
1.6202884 -0.95460367 -0.15941681 4278255360
1.6204629 -0.94460523 -0.15938388 4278255360
1.6207247 -0.92960763 -0.15933447 4278255360
1.6208119 -0.92460835 -0.15931799 4278255360
1.6268845 -0.58463144 -0.16819714 4278255360
1.6269889 -0.57464826 -0.16316472 4278255360
1.6271634 -0.56464994 -0.16313179 4278255360
1.6273379 -0.5546515 -0.16309886 4278255360
1.6274252 -0.54965222 -0.16308241 4278255360
1.6275125 -0.54465306 -0.16306593 4278255360
1.6277742 -0.52965546 -0.16301651 4278255360
1.6675248 1.7599378 -0.14047562 4278255360
1.6676292 1.7699208 -0.1354432 4278255360
1.6677165 1.77492 -0.13542674 4278255360
1.6678038 1.7799191 -0.13541026 4278255360
1.6680655 1.7949166 -0.13536085 4278255360
1.6685719 1.8199282 -0.140278 4278255360
1.6153755 -1.5146334 -0.15119271 4278255360
1.6252871 -0.95469117 -0.15934725 4278255360
1.6253743 -0.94969189 -0.15933077 4278255360
1.6254616 -0.94469273 -0.15931432 4278255360
1.6256361 -0.93469429 -0.15928136 4278255360
1.6257234 -0.92969513 -0.15926491 4278255360
1.6259675 -0.91968143 -0.16423146 4278255360
1.6318135 -0.5847342 -0.16312812 4278255360
1.6319008 -0.57973504 -0.16311164 4278255360
1.6320753 -0.5697366 -0.16307871 4278255360
1.6322498 -0.55973816 -0.16304578 4278255360
1.6324244 -0.54973972 -0.16301285 4278255360
1.6325984 -0.5397414 -0.16297989 4278255360
1.6326857 -0.53474212 -0.16296344 4278255360
1.6327729 -0.52974296 -0.16294695 4278255360
1.6329303 -0.52472854 -0.16792996 4278255360
1.6724539 1.7598352 -0.13540657 4278255360
1.6726284 1.7698336 -0.13537364 4278255360
1.6728029 1.7798319 -0.13534071 4278255360
1.6729774 1.7898302 -0.13530777 4278255360
1.6730647 1.7948294 -0.13529129 4278255360
1.6732388 1.8048277 -0.13525836 4278255360
1.673326 1.8098269 -0.13524188 4278255360
1.6301813 -0.96476173 -0.16431014 4278255360
1.6301985 -0.95977783 -0.15929414 4278255360
1.6302857 -0.95477867 -0.15927769 4278255360
1.630373 -0.94977939 -0.15926121 4278255360
1.6305475 -0.93978107 -0.15922828 4278255360
1.6308093 -0.92478335 -0.15917887 4278255360
1.6367946 -0.58980572 -0.1680745 4278255360
1.6369867 -0.57482326 -0.1630256 4278255360
1.6375098 -0.54482806 -0.16292681 4278255360
1.6377716 -0.52983046 -0.1628774 4278255360
1.637929 -0.52481604 -0.1678604 4278255360
1.6775398 1.7647462 -0.13532056 4278255360
1.6777143 1.774745 -0.13528763 4278255360
1.6779757 1.7897425 -0.13523822 4278255360
1.6782374 1.80474 -0.1351888 4278255360
1.6783247 1.8097391 -0.13517232 4278255360
1.678412 1.8147388 -0.13515587 4278255360
1.6784992 1.8197379 -0.13513939 4278255360
1.63518 -0.96484923 -0.16424055 4278255360
1.6353717 -0.94986689 -0.15919162 4278255360
1.6354589 -0.94486773 -0.15917517 4278255360
1.6355462 -0.93986857 -0.15915869 4278255360
1.6356335 -0.93486929 -0.15914221 4278255360
1.635808 -0.92487085 -0.15910928 4278255360
1.6418805 -0.58489394 -0.16798843 4278255360
1.6420727 -0.5699116 -0.16293956 4278255360
1.6421599 -0.56491244 -0.16292308 4278255360
1.6422472 -0.55991316 -0.16290663 4278255360
1.6424217 -0.54991472 -0.1628737 4278255360
1.6425962 -0.5399164 -0.16284074 4278255360
1.6824512 1.7596602 -0.13526742 4278255360
1.6826258 1.7696586 -0.13523449 4278255360
1.6828003 1.7796569 -0.13520156 4278255360
1.6828876 1.784656 -0.13518508 4278255360
1.6829748 1.7896552 -0.13516863 4278255360
1.6831493 1.799654 -0.1351357 4278255360
1.6832366 1.8046527 -0.13511921 4278255360
1.6834111 1.8146515 -0.13508628 4278255360
1.683568 1.8196659 -0.14006929 4278255360
1.6401787 -0.96493661 -0.164171 4278255360
1.6402831 -0.95495355 -0.15913855 4278255360
1.6403704 -0.94995427 -0.15912206 4278255360
1.6406322 -0.93495667 -0.15907265 4278255360
1.6407194 -0.92995751 -0.1590562 4278255360
1.6467919 -0.5899806 -0.16793536 4278255360
1.6469841 -0.57499814 -0.16288646 4278255360
1.6470714 -0.56999898 -0.16287 4278255360
1.6472459 -0.56000054 -0.16283707 4278255360
1.6474204 -0.5500021 -0.16280414 4278255360
1.6475077 -0.54500294 -0.16278766 4278255360
1.6476822 -0.5350045 -0.16275473 4278255360
1.6477695 -0.53000534 -0.16273825 4278255360
1.6877117 1.77457 -0.13514848 4278255360
1.6878862 1.7845683 -0.13511552 4278255360
1.6880608 1.7945666 -0.13508259 4278255360
1.688148 1.7995663 -0.13506614 4278255360
1.6883225 1.8095641 -0.13503318 4278255360
1.6885667 1.8195782 -0.13999973 4278255360
1.6452646 -0.96002495 -0.16408496 4278255360
1.6455441 -0.94004345 -0.15901957 4278255360
1.6457186 -0.93004501 -0.15898664 4278255360
1.6518784 -0.58506882 -0.16784932 4278255360
1.6519828 -0.57508564 -0.1628169 4278255360
1.65207 -0.57008648 -0.16280045 4278255360
1.6523318 -0.55508888 -0.16275103 4278255360
1.6524191 -0.5500896 -0.16273458 4278255360
1.6525936 -0.54009128 -0.16270162 4278255360
1.6527681 -0.53009284 -0.16266869 4278255360
1.6925359 1.7644839 -0.13511185 4278255360
1.6927977 1.7794819 -0.13506244 4278255360
1.6929722 1.7894802 -0.13502951 4278255360
1.6930594 1.7944794 -0.13501303 4278255360
1.6933212 1.8094769 -0.13496362 4278255360
1.6934085 1.8144765 -0.13494717 4278255360
1.6503506 -0.95511329 -0.16399892 4278255360
1.6504555 -0.94513011 -0.15896647 4278255360
1.6505427 -0.94013095 -0.15894999 4278255360
1.65063 -0.93513167 -0.15893351 4278255360
1.6569643 -0.58015716 -0.16776328 4278255360
1.657156 -0.56517482 -0.16271438 4278255360
1.6574178 -0.5501771 -0.16266499 4278255360
1.6575923 -0.54017878 -0.16263203 4278255360
1.6577497 -0.53516424 -0.16761507 4278255360
1.6976223 1.7693963 -0.13502578 4278255360
1.6977968 1.7793946 -0.13499285 4278255360
1.6978836 1.7843938 -0.13497637 4278255360
1.6980581 1.7943921 -0.13494344 4278255360
1.6982327 1.8043904 -0.13491051 4278255360
1.6984773 1.8144045 -0.13987707 4278255360
1.655262 -0.96019995 -0.16394581 4278255360
1.6553493 -0.95520079 -0.16392936 4278255360
1.6554365 -0.95020151 -0.16391288 4278255360
1.6555414 -0.94021845 -0.15888043 4278255360
1.6556983 -0.93520391 -0.16386347 4278255360
1.661963 -0.58024466 -0.16769372 4278255360
1.6621375 -0.57024622 -0.16766079 4278255360
1.6623292 -0.55526388 -0.16261189 4278255360
1.6624165 -0.5502646 -0.16259544 4278255360
1.6626611 -0.54025102 -0.16756196 4278255360
1.7027779 1.774323 -0.13993923 4278255360
1.7028651 1.7793221 -0.13992278 4278255360
1.7028823 1.784306 -0.13490681 4278255360
1.7033014 1.804318 -0.13984044 4278255360
1.6603484 -0.95528817 -0.1638598 4278255360
1.6606102 -0.94029057 -0.16381039 4278255360
1.6606975 -0.93529129 -0.16379391 4278255360
1.6672235 -0.56533444 -0.16757475 4278255360
1.6673107 -0.56033516 -0.1675583 4278255360
1.7080383 1.7892332 -0.13982029 4278255360
1.7124777 1.1641455 -0.16666754 4278255360
1.7126522 1.1741443 -0.1666346 4278255360
1.7128267 1.1841426 -0.16660167 4278255360
1.7172146 1.1490605 -0.16664736 4278255360
1.7173018 1.1540596 -0.16663091 4278255360
1.7174764 1.164058 -0.16659795 4278255360
1.7175636 1.1690574 -0.1665815 4278255360
1.7176509 1.1740568 -0.16656502 4278255360
1.722126 1.1439738 -0.16659428 4278255360
1.7222133 1.148973 -0.1665778 4278255360
1.7223878 1.1589715 -0.16654487 4278255360
1.7225623 1.1689699 -0.16651194 4278255360
1.7226496 1.1739693 -0.16649546 4278255360
1.7227368 1.1789682 -0.16647901 4278255360
1.7228241 1.1839676 -0.16646253 4278255360
1.7229986 1.1939659 -0.16642959 4278255360
1.7270379 1.1388872 -0.16654114 4278255360
1.7272997 1.1538846 -0.16649176 4278255360
1.7275615 1.1688824 -0.16644235 4278255360
1.727736 1.1788807 -0.16640942 4278255360
1.7321239 1.1437988 -0.16645513 4278255360
1.7322111 1.148798 -0.16643865 4278255360
1.7323856 1.1587965 -0.16640572 4278255360
1.7324724 1.1637955 -0.16638924 4278255360
1.7326469 1.1737943 -0.16635631 4278255360
1.7328215 1.1837926 -0.16632338 4278255360
1.7329087 1.1887918 -0.1663069 4278255360
1.736948 1.1337128 -0.16641851 4278255360
1.7371225 1.1437113 -0.16638558 4278255360
1.7373843 1.158709 -0.16633616 4278255360
1.7374716 1.163708 -0.16631968 4278255360
1.7376461 1.1737068 -0.16628675 4278255360
1.7377334 1.1787057 -0.1662703 4278255360
1.7378206 1.1837051 -0.16625382 4278255360
1.7379951 1.1937034 -0.16622089 4278255360
1.7422085 1.148623 -0.16629951 4278255360
1.7424703 1.1636205 -0.16625009 4278255360
1.7428193 1.1836176 -0.16618423 4278255360
1.7429938 1.1936159 -0.1661513 4278255360
1.7470326 1.1385374 -0.16626288 4278255360
1.7473817 1.1585343 -0.16619702 4278255360
1.7475562 1.1685326 -0.16616409 4278255360
1.7477307 1.1785309 -0.16613115 4278255360
1.7479053 1.1885295 -0.16609819 4278255360
1.7520313 1.1384499 -0.16619332 4278255360
1.7521186 1.1434491 -0.16617687 4278255360
1.7522058 1.1484482 -0.16616039 4278255360
1.7522931 1.1534474 -0.16614394 4278255360
1.7524676 1.1634457 -0.16611098 4278255360
1.7526422 1.1734445 -0.16607805 4278255360
1.7527294 1.1784434 -0.1660616 4278255360
1.7163024 -1.1912855 -0.16879843 4278255360
1.7164769 -1.1812871 -0.16876547 4278255360
1.7569432 1.133363 -0.16614021 4278255360
1.7571173 1.1433616 -0.16610728 4278255360
1.7572045 1.1483607 -0.1660908 4278255360
1.7572918 1.1533599 -0.16607435 4278255360
1.7574663 1.1633582 -0.16604139 4278255360
1.7575536 1.1683576 -0.16602494 4278255360
1.7577281 1.1783559 -0.16599201 4278255360
1.7213883 -1.1863737 -0.16871239 4278255360
1.7214756 -1.1813745 -0.16869591 4278255360
1.7216501 -1.1713761 -0.16866298 4278255360
1.7217374 -1.1663769 -0.16864653 4278255360
1.762116 1.1432741 -0.16603772 4278255360
1.7622905 1.1532724 -0.16600479 4278255360
1.7625523 1.1682701 -0.16595538 4278255360
1.7262998 -1.1914605 -0.16865931 4278255360
1.726387 -1.1864612 -0.16864283 4278255360
1.7265615 -1.1764629 -0.1686099 4278255360
1.7267361 -1.1664644 -0.16857697 4278255360
1.7674642 1.1631832 -0.16590227 4278255360
1.731473 -1.1815495 -0.16855676 4278255360
1.7316475 -1.1715511 -0.16852383 4278255360
1.7362976 -1.1916354 -0.16852017 4278255360
1.7365589 -1.1766378 -0.16847076 4278255360
1.7413831 -1.1867236 -0.16843413 4278255360
1.7415576 -1.1767253 -0.1684012 4278255360
1.7728 -0.24215019 -0.16011347 4278255360
1.7776241 -0.25223625 -0.16007681 4278255360
1.7778859 -0.23723888 -0.1600274 4278255360
1.7824483 -0.26232207 -0.16004018 4278255360
1.7825356 -0.25732291 -0.1600237 4278255360
1.7828846 -0.23732638 -0.15995784 4278255360
1.7829719 -0.23232698 -0.15994136 4278255360
1.7893758 0.12266278 -0.17377059 4278255360
1.7871857 -0.27740729 -0.16002001 4278255360
1.7872725 -0.27240789 -0.16000353 4278255360
1.787447 -0.26240957 -0.1599706 4278255360
1.7876215 -0.25241125 -0.15993766 4278255360
1.7877088 -0.24741209 -0.15992118 4278255360
1.7879705 -0.23241448 -0.15987177 4278255360
1.7880578 -0.22741532 -0.15985532 4278255360
1.7943048 0.12256002 -0.16870151 4278255360
1.7944622 0.12757444 -0.17368452 4278255360
1.7946367 0.13757277 -0.17365159 4278255360
1.7921839 -0.27749467 -0.15995045 4278255360
1.7923584 -0.26749635 -0.15991752 4278255360
1.7925329 -0.25749791 -0.15988456 4278255360
1.7927251 -0.24251544 -0.15483566 4278255360
1.792882 -0.23750138 -0.15981869 4278255360
1.7930565 -0.22750282 -0.15978576 4278255360
1.7991991 0.11248946 -0.17366438 4278255360
1.7992864 0.11748862 -0.1736479 4278255360
1.7994609 0.12748694 -0.17361496 4278255360
1.8126526 0.88735199 -0.16611232 4278255360
1.8127398 0.89235115 -0.16609587 4278255360
1.7970085 -0.28758073 -0.15991382 4278255360
1.7972875 -0.26759911 -0.15484844 4278255360
1.7973747 -0.26259971 -0.15483196 4278255360
1.797462 -0.25760067 -0.15481551 4278255360
1.7975492 -0.2526015 -0.15479903 4278255360
1.7979684 -0.23258948 -0.15973265 4278255360
1.7980556 -0.22759032 -0.1597162 4278255360
1.8175645 0.88226533 -0.16605924 4278255360
1.8176517 0.88726449 -0.16604276 4278255360
1.8179135 0.90226197 -0.16599338 4278255360
1.8020945 -0.28266883 -0.15982775 4278255360
1.8021817 -0.27766967 -0.1598113 4278255360
1.8022861 -0.26768661 -0.15477885 4278255360
1.8026352 -0.2476896 -0.15471296 4278255360
1.8027225 -0.24269021 -0.15469651 4278255360
1.8031411 -0.22267842 -0.15963013 4278255360
1.8225632 0.88217807 -0.16598965 4278255360
1.8227377 0.89217639 -0.16595672 4278255360
1.822825 0.89717579 -0.16594024 4278255360
1.8229995 0.90717411 -0.16590731 4278255360
1.8071804 -0.27775717 -0.15974174 4278255360
1.807198 -0.27277303 -0.15472575 4278255360
1.8074594 -0.25777543 -0.15467636 4278255360
1.8076339 -0.2477771 -0.1546434 4278255360
1.8077211 -0.24277771 -0.15462695 4278255360
1.8078785 -0.23776364 -0.15960999 4278255360
1.8079658 -0.23276424 -0.15959351 4278255360
1.8276491 0.88708973 -0.16590361 4278255360
1.8277364 0.89208889 -0.16588716 4278255360
1.8279982 0.90708661 -0.16583775 4278255360
1.8281727 0.91708493 -0.16580482 4278255360
1.8120046 -0.28784311 -0.15970512 4278255360
1.8121963 -0.27286041 -0.15465619 4278255360
1.8122835 -0.26786149 -0.15463974 4278255360
1.812458 -0.25786293 -0.1546068 4278255360
1.8125453 -0.25286376 -0.15459032 4278255360
1.8126326 -0.2478646 -0.15457384 4278255360
1.8128071 -0.2378664 -0.15454091 4278255360
1.8129644 -0.23285174 -0.15952395 4278255360
1.8130517 -0.22785258 -0.1595075 4278255360
1.8324733 0.87700391 -0.16586699 4278255360
1.8325605 0.88200307 -0.16585054 4278255360
1.8328223 0.89700079 -0.16580112 4278255360
1.8330841 0.91199827 -0.16575171 4278255360
1.8170905 -0.28293121 -0.15961905 4278255360
1.8171954 -0.27294791 -0.1545866 4278255360
1.8172827 -0.26794899 -0.15457015 4278255360
1.8175445 -0.25295126 -0.15452074 4278255360
1.817719 -0.2429527 -0.1544878 4278255360
1.8179631 -0.23293924 -0.15945436 4278255360
1.8180504 -0.22794008 -0.15943791 4278255360
1.8375592 0.88191557 -0.16578095 4278255360
1.8377337 0.89191389 -0.16574802 4278255360
1.8379955 0.90691161 -0.1656986 4278255360
1.8381701 0.91690993 -0.16566567 4278255360
1.8220892 -0.28301871 -0.15954949 4278255360
1.8221765 -0.27801955 -0.15953304 4278255360
1.8221941 -0.27303541 -0.15451704 4278255360
1.8223686 -0.26303709 -0.15448411 4278255360
1.8224559 -0.25803792 -0.15446766 4278255360
1.8226304 -0.2480396 -0.1544347 4278255360
1.8426452 0.88682723 -0.16569491 4278255360
1.8428197 0.89682579 -0.16566198 4278255360
1.842907 0.90182471 -0.16564552 4278255360
1.8430815 0.91182327 -0.16561256 4278255360
1.7988186 -1.8231684 -0.064562365 4278255360
1.82728 -0.26812398 -0.15443103 4278255360
1.8275418 -0.25312626 -0.15438162 4278255360
1.8278036 -0.2381289 -0.15433221 4278255360
1.8280478 -0.22811508 -0.15929879 4278255360
1.8474698 0.87674141 -0.16565828 4278255360
1.8478184 0.89673829 -0.16559242 4278255360
1.8479056 0.90173721 -0.16557597 4278255360
1.8479929 0.90673661 -0.16555949 4278255360
1.8481674 0.91673493 -0.16552655 4278255360
1.8038173 -1.8232558 -0.064492777 4278255360
1.8321738 -0.27819443 -0.15939389 4278255360
1.832366 -0.26321197 -0.15434496 4278255360
1.8324533 -0.25821292 -0.15432851 4278255360
1.8326278 -0.2482146 -0.15429555 4278255360
1.832715 -0.2432152 -0.1542791 4278255360
1.8329592 -0.23320174 -0.15924565 4278255360
1.8526425 0.88665223 -0.16555576 4278255360
1.8528171 0.89665079 -0.16552283 4278255360
1.8530788 0.91164827 -0.16547342 4278255360
1.8089032 -1.8183441 -0.064406738 4278255360
1.8373475 -0.26828361 -0.1592914 4278255360
1.8375392 -0.25330126 -0.15424247 4278255360
1.8377838 -0.24328744 -0.15920906 4278255360
1.8378711 -0.23828864 -0.15919258 4278255360
1.8578162 0.89656329 -0.16545327 4278255360
1.8579035 0.90156221 -0.16543682 4278255360
1.8427825 -0.24337471 -0.1591395 4278255360
1.8428693 -0.2383759 -0.15912302 4278255360
1.8494534 -1.2737261 -0.13718663 4278255360
1.8543649 -1.2788128 -0.13713352 4278255360
1.8544698 -1.2688297 -0.1321011 4278255360
1.8546443 -1.2588313 -0.13206817 4278255360
1.8592768 -1.2838995 -0.13708042 4278255360
1.8592939 -1.2789154 -0.13206448 4278255360
1.8595557 -1.2639179 -0.13201506 4278255360
1.859643 -1.2589188 -0.13199858 4278255360
1.8597302 -1.2539194 -0.13198213 4278255360
1.8642926 -1.2790029 -0.13199492 4278255360
1.8643799 -1.2740037 -0.13197844 4278255360
1.8645544 -1.2640054 -0.13194551 4278255360
1.8646417 -1.2590063 -0.13192903 4278255360
1.8715172 -0.88897288 -0.16070731 4278255360
1.8716917 -0.87897444 -0.16067438 4278255360
1.8691869 -1.2890736 -0.13695775 4278255360
1.869204 -1.2840897 -0.13194178 4278255360
1.8693786 -1.2740912 -0.13190885 4278255360
1.8694658 -1.2690921 -0.13189237 4278255360
1.8695531 -1.2640928 -0.13187592 4278255360
1.8698149 -1.2490952 -0.13182651 4278255360
1.8766031 -0.88406122 -0.16062127 4278255360
1.8768649 -0.86906362 -0.16057186 4278255360
1.9175754 1.4755208 -0.13784982 4278255360
1.8742027 -1.2841772 -0.13187222 4278255360
1.8743773 -1.2741787 -0.13183929 4278255360
1.8747263 -1.2541819 -0.13177343 4278255360
1.8748136 -1.2491827 -0.13175695 4278255360
1.8814273 -0.89414704 -0.16058464 4278255360
1.8816018 -0.8841486 -0.16055171 4278255360
1.8817763 -0.87415016 -0.16051878 4278255360
1.8819509 -0.86415172 -0.16048582 4278255360
1.9226613 1.4804327 -0.13776378 4278255360
1.9228354 1.4904311 -0.13773085 4278255360
1.8792892 -1.2792654 -0.13178621 4278255360
1.8794637 -1.2692671 -0.13175325 4278255360
1.8796382 -1.2592685 -0.13172032 4278255360
1.8797255 -1.2542694 -0.13170387 4278255360
1.8864264 -0.89423454 -0.16051508 4278255360
1.8865132 -0.88923526 -0.1604986 4278255360
1.8866878 -0.87923682 -0.16046567 4278255360
1.8868623 -0.8692385 -0.16043274 4278255360
1.9275727 1.4753458 -0.13771071 4278255360
1.9277472 1.4853442 -0.13767774 4278255360
1.8842006 -1.2843521 -0.13173307 4278255360
1.8842878 -1.2793529 -0.13171662 4278255360
1.8844619 -1.2693546 -0.13168366 4278255360
1.8847237 -1.2543569 -0.13163428 4278255360
1.8848982 -1.2443585 -0.13160132 4278255360
1.8913374 -0.8993212 -0.16046198 4278255360
1.8915119 -0.88932276 -0.16042902 4278255360
1.8915992 -0.8843236 -0.16041256 4278255360
1.8916864 -0.87932432 -0.16039608 4278255360
1.8917737 -0.87432516 -0.16037963 4278255360
1.9323969 1.46526 -0.13767405 4278255360
1.9324841 1.4702592 -0.13765757 4278255360
1.9326587 1.4802577 -0.13762464 4278255360
1.9327459 1.4852567 -0.13760816 4278255360
1.9328332 1.4902561 -0.1375917 4278255360
1.8891816 -1.2894235 -0.13667949 4278255360
1.8893738 -1.2744411 -0.13163058 4278255360
1.8895483 -1.2644427 -0.13159765 4278255360
1.8896356 -1.2594435 -0.13158117 4278255360
1.8898101 -1.2494452 -0.13154824 4278255360
1.8964238 -0.89440954 -0.16037594 4278255360
1.8965983 -0.8844111 -0.16034301 4278255360
1.8968601 -0.8694135 -0.16029359 4278255360
1.8969474 -0.86441422 -0.16027711 4278255360
1.9378319 1.4901686 -0.13752215 4278255360
1.8942852 -1.2795278 -0.13157751 4278255360
1.8944597 -1.2695295 -0.13154455 4278255360
1.9017715 -0.87450004 -0.16024052 4278255360
1.9018588 -0.86950088 -0.16022404 4278255360
1.9423075 1.4600859 -0.13755138 4278255360
1.9423947 1.465085 -0.13753493 4278255360
1.942482 1.4700842 -0.13751845 4278255360
1.9426565 1.4800828 -0.13748552 4278255360
1.9427433 1.4850817 -0.13746904 4278255360
1.9063339 -0.89958358 -0.16025327 4278255360
1.9064212 -0.89458442 -0.16023679 4278255360
1.9065084 -0.88958514 -0.16022031 4278255360
1.9065957 -0.88458598 -0.16020386 4278255360
1.9473929 1.4649975 -0.13746534 4278255360
1.9476547 1.4799953 -0.13741593 4278255360
1.9478292 1.4899936 -0.137383 4278255360
1.9115071 -0.88967264 -0.16015075 4278255360
1.9523921 1.4649103 -0.13739578 4278255360
1.9524794 1.4699094 -0.1373793 4278255360
1.9525666 1.4749086 -0.13736285 4278255360
1.9527411 1.4849069 -0.13732989 4278255360
1.9529853 1.4949207 -0.14229645 4278255360
1.9530725 1.4999199 -0.14228 4278255360
1.9575653 1.4748211 -0.13729329 4278255360
1.9580712 1.4998324 -0.14221044 4278255360
1.9626513 1.479733 -0.13720722 4278255360
1.9627385 1.4847319 -0.13719074 4278255360
1.9628954 1.4897466 -0.14217378 4278255360
1.967545 1.4696622 -0.14217009 4278255360
1.9676323 1.4746614 -0.14215361 4278255360
1.9677196 1.4796607 -0.14213715 4278255360
1.9678941 1.4896591 -0.14210422 4278255360
1.9679813 1.4946582 -0.14208774 4278255360
1.9355159 -0.67997944 -0.18417828 4278255360
1.9356904 -0.669981 -0.18414532 4278255360
1.9413791 -0.34004831 -0.17805897 4278255360
1.9414663 -0.33504915 -0.17804249 4278255360
1.9726315 1.4745739 -0.14208405 4278255360
1.9727187 1.4795732 -0.1420676 4278255360
1.9728932 1.4895716 -0.14203466 4278255360
1.9405146 -0.68006694 -0.18410869 4278255360
1.9406018 -0.67506778 -0.18409221 4278255360
1.9462905 -0.34513497 -0.17800583 4278255360
1.9465523 -0.33013737 -0.17795642 4278255360
1.973599 1.2395387 -0.14778797 4278255360
1.9776301 1.4744864 -0.14201446 4278255360
1.9777174 1.4794858 -0.14199801 4278255360
1.9778047 1.4844847 -0.14198153 4278255360
1.9452519 -0.69515193 -0.18408851 4278255360
1.9454265 -0.68515348 -0.18405558 4278255360
1.945775 -0.66515672 -0.18398972 4278255360
1.9512892 -0.34522235 -0.17793627 4278255360
1.9514637 -0.33522403 -0.17790334 4278255360
1.951551 -0.33022475 -0.17788686 4278255360
1.9516382 -0.32522559 -0.17787041 4278255360
1.9517255 -0.32022631 -0.17785393 4278255360
1.9782491 1.2194545 -0.14778428 4278255360
1.9784236 1.2294528 -0.14775135 4278255360
1.9784408 1.2344368 -0.14273538 4278255360
1.9786854 1.2444503 -0.14770193 4278255360
1.9501629 -0.7002387 -0.18403544 4278255360
1.9502678 -0.69025552 -0.17900302 4278255360
1.9505119 -0.68024182 -0.18396957 4278255360
1.9505992 -0.67524266 -0.18395309 4278255360
1.9506865 -0.67024338 -0.18393661 4278255360
1.9507737 -0.66524422 -0.18392016 4278255360
1.950861 -0.66024506 -0.18390368 4278255360
1.9563751 -0.34031069 -0.17785026 4278255360
1.9564624 -0.33531153 -0.17783378 4278255360
1.9566369 -0.32531309 -0.17780085 4278255360
1.9567242 -0.32031381 -0.17778437 4278255360
1.9831605 1.2143676 -0.14773117 4278255360
1.983335 1.2243659 -0.14769824 4278255360
1.983614 1.2443476 -0.14263289 4278255360
1.9837713 1.2493622 -0.14761589 4278255360
1.9838586 1.2543612 -0.14759944 4278255360
1.955092 -0.70034146 -0.17896636 4278255360
1.9551792 -0.69534218 -0.17894991 4278255360
1.9552665 -0.69034302 -0.17893343 4278255360
1.9553537 -0.68534374 -0.17891698 4278255360
1.9555283 -0.67534542 -0.17888401 4278255360
1.9558601 -0.66033256 -0.18383412 4278255360
1.961287 -0.34539735 -0.17779712 4278255360
1.9615483 -0.33039975 -0.17774771 4278255360
1.9616356 -0.32540059 -0.17773126 4278255360
1.9880719 1.2092812 -0.14767806 4278255360
1.9882464 1.2192798 -0.14764513 4278255360
1.9883513 1.2292628 -0.14261271 4278255360
1.9885259 1.2392612 -0.14257978 4278255360
1.9886131 1.2442603 -0.1425633 4278255360
1.98877 1.249275 -0.14754631 4278255360
1.9598989 -0.71541131 -0.1839457 4278255360
1.9600735 -0.70541286 -0.18391274 4278255360
1.9604397 -0.68043208 -0.17883094 4278255360
1.9606843 -0.67041838 -0.18379746 4278255360
1.966198 -0.35048413 -0.17774405 4278255360
1.9663725 -0.34048569 -0.17771111 4278255360
1.9666343 -0.32548809 -0.1776617 4278255360
1.9930706 1.2091937 -0.1476085 4278255360
1.9932451 1.2191923 -0.14757557 4278255360
1.9932623 1.2241759 -0.1425596 4278255360
1.9936113 1.2441728 -0.14249374 4278255360
1.9939432 1.2591858 -0.14744382 4278255360
1.9499078 -1.5305381 -0.13156606 4278255360
1.949995 -1.5255388 -0.13154958 4278255360
1.9648976 -0.71549869 -0.18387611 4278255360
1.9651594 -0.70050108 -0.1838267 4278255360
1.9651771 -0.69551706 -0.17881076 4278255360
1.9653339 -0.69050264 -0.18379377 4278255360
1.9655957 -0.67550504 -0.18374436 4278255360
1.9657702 -0.6655066 -0.18371142 4278255360
1.9712844 -0.34557223 -0.17765798 4278255360
1.9714589 -0.33557391 -0.17762505 4278255360
1.9715462 -0.33057463 -0.17760856 4278255360
1.997982 1.204107 -0.1475554 4278255360
1.9981565 1.2141054 -0.14752243 4278255360
1.9982438 1.2191048 -0.14750598 4278255360
1.9984183 1.2291031 -0.14747305 4278255360
1.998436 1.234087 -0.14245708 4278255360
1.9987674 1.2491 -0.14740716 4278255360
1.9988546 1.2540989 -0.14739071 4278255360
1.9989419 1.2590983 -0.14737423 4278255360
1.9990292 1.2640975 -0.14735778 4278255360
1.9549065 -1.5306255 -0.1314965 4278255360
1.955081 -1.520627 -0.13146354 4278255360
1.9551682 -1.5156279 -0.13144709 4278255360
1.95543 -1.5006301 -0.13139768 4278255360
1.9699836 -0.71058691 -0.1837901 4278255360
1.9702454 -0.6955893 -0.18374069 4278255360
1.9705071 -0.6805917 -0.18369128 4278255360
1.9705944 -0.67559254 -0.1836748 4278255360
1.9707689 -0.6655941 -0.18364187 4278255360
1.9760036 -0.36564136 -0.1826538 4278255360
2.0029807 1.2040195 -0.14748584 4278255360
2.0031552 1.2140179 -0.14745288 4278255360
2.0032425 1.2190173 -0.14743643 4278255360
