# .PCD v0.7 - Point Cloud Data file format
VERSION 0.7
FIELDS x y z rgb
SIZE 4 4 4 4
TYPE F F F U
COUNT 1 1 1 1
WIDTH 1076
HEIGHT 1
VIEWPOINT 0 0 0 1 0 0 0
POINTS 1076
DATA ascii
-1.1007311 0.80873126 -0.18837996 4278255360
-1.1006715 0.80843598 -0.18338905 4278255360
-1.1006119 0.80814058 -0.17839813 4278255360
-1.1005521 0.80784529 -0.17340721 4278255360
-1.1044641 0.78968281 -0.19948058 4278255360
-1.1044044 0.78938752 -0.19448966 4278255360
-1.1043448 0.78909224 -0.18949874 4278255360
-0.94550061 1.6868135 -0.19338235 4278255360
-0.94929314 1.6680603 -0.20947388 4278255360
-1.0831914 0.92362475 -0.11667342 4278255360
-1.0831316 0.92332947 -0.11168252 4278255360
-1.0830719 0.92303407 -0.10669158 4278255360
-1.0868647 0.90428102 -0.12278311 4278255360
-1.0867453 0.90369046 -0.1128013 4278255360
-1.0905976 0.88523269 -0.13388373 4278255360
-1.0905378 0.88493741 -0.12889281 4278255360
-1.0904782 0.88464212 -0.12390189 4278255360
-1.0943902 0.86647964 -0.14997526 4278255360
-1.0943305 0.86618423 -0.14498432 4278255360
-1.0942111 0.86559367 -0.13500251 4278255360
-1.0941515 0.86529839 -0.13001157 4278255360
-1.0981231 0.84743118 -0.16107585 4278255360
-1.0980635 0.8471359 -0.15608494 4278255360
-1.0980039 0.84684062 -0.15109403 4278255360
-1.097944 0.84654522 -0.1461031 4278255360
-1.0978844 0.84624994 -0.14111219 4278255360
-1.1016769 0.82749689 -0.15720372 4278255360
-1.1057084 0.80992496 -0.19325891 4278255360
-1.1056488 0.80962968 -0.18826801 4278255360
-1.1055889 0.8093344 -0.1832771 4278255360
-1.1055293 0.809039 -0.17828616 4278255360
-1.1054697 0.80874372 -0.17329526 4278255360
-1.1093221 0.79028594 -0.19437769 4278255360
-1.1092622 0.78999066 -0.18938679 4278255360
-0.9504776 1.6880071 -0.19826132 4278255360
-1.0843756 0.94357163 -0.10546085 4278255360
-1.0880489 0.92422789 -0.11157057 4278255360
-1.0879891 0.92393249 -0.10657963 4278255360
-1.0917819 0.90517944 -0.12267116 4278255360
-1.0917222 0.90488416 -0.11768025 4278255360
-1.0916624 0.90458888 -0.11268935 4278255360
-1.0955148 0.88613111 -0.13377178 4278255360
-1.0954552 0.88583583 -0.12878086 4278255360
-1.0953953 0.88554054 -0.12378994 4278255360
-1.0953357 0.88524526 -0.11879903 4278255360
-1.0991881 0.86678737 -0.13988146 4278255360
-1.0990686 0.86619681 -0.12989962 4278255360
-1.1029806 0.84803432 -0.15597299 4278255360
-1.102921 0.84773904 -0.15098208 4278255360
-1.1028614 0.84744364 -0.14599115 4278255360
-1.1028016 0.84714836 -0.14100024 4278255360
-1.1067734 0.82928115 -0.17206451 4278255360
-1.1067135 0.82898587 -0.16707361 4278255360
-1.1066539 0.82869059 -0.16208267 4278255360
-1.1065943 0.82839531 -0.15709177 4278255360
-1.1104465 0.80993742 -0.17817421 4278255360
-1.1103868 0.80964214 -0.17318331 4278255360
-1.1103272 0.80934685 -0.16819239 4278255360
-1.1115291 0.80591363 -0.19342665 4278255360
-1.1114693 0.80561835 -0.18843575 4278255360
-1.1114097 0.80532306 -0.18344484 4278255360
-1.089293 0.94447005 -0.1053489 4278255360
-1.0929663 0.92512631 -0.11145861 4278255360
-1.0929067 0.92483091 -0.10646768 4278255360
-1.09658 0.9054873 -0.11257739 4278255360
-1.1003726 0.88673425 -0.1286689 4278255360
-1.1003129 0.88643897 -0.12367798 4278255360
-1.1002531 0.88614368 -0.11868708 4278255360
-1.1041651 0.86798108 -0.14476041 4278255360
-1.1041055 0.86768579 -0.13976951 4278255360
-1.1040459 0.86739051 -0.1347786 4278255360
-1.1078982 0.84893274 -0.15586103 4278255360
-1.1078384 0.84863746 -0.15087013 4278255360
-1.1077788 0.84834206 -0.14587919 4278255360
-1.1077192 0.84804678 -0.14088829 4278255360
-1.1116312 0.82988429 -0.16696164 4278255360
-1.1115713 0.82958901 -0.16197072 4278255360
-1.1114521 0.82899845 -0.15198891 4278255360
-1.1125941 0.82526982 -0.17223226 4278255360
-1.115185 0.80994999 -0.16308951 4278255360
-1.1163869 0.80651677 -0.18832378 4278255360
-1.1162674 0.80592608 -0.17834195 4278255360
-1.1162078 0.8056308 -0.17335103 4278255360
-1.0978835 0.92602473 -0.11134665 4278255360
-1.0978239 0.92572933 -0.10635571 4278255360
-1.1015568 0.906681 -0.11745633 4278255360
-1.1014376 0.90609032 -0.10747449 4278255360
-1.1052897 0.88763267 -0.12855694 4278255360
-1.1051705 0.88704211 -0.11857511 4278255360
-1.1090226 0.86858422 -0.13965754 4278255360
-1.108963 0.86828893 -0.13466664 4278255360
-1.1089034 0.86799365 -0.1296757 4278255360
-1.1088436 0.86769837 -0.1246848 4278255360
-1.1125767 0.84864992 -0.13578542 4278255360
-1.1136591 0.84462613 -0.15103786 4278255360
-1.1135993 0.84433073 -0.14604692 4278255360
-1.1135397 0.84403545 -0.14105602 4278255360
-1.1163692 0.82989687 -0.15187694 4278255360
-1.1174517 0.82587296 -0.16712938 4278255360
-1.1173921 0.82557768 -0.16213845 4278255360
-1.1172726 0.82498711 -0.15215664 4278255360
-1.121304 0.80741519 -0.18821183 4278255360
-1.1211846 0.80682451 -0.17822999 4278255360
-1.121125 0.80652922 -0.17323908 4278255360
-1.0991278 0.94626689 -0.10512498 4278255360
-1.0990682 0.94597161 -0.10013406 4278255360
-1.1028011 0.92692316 -0.11123469 4278255360
-1.1027412 0.92662776 -0.10624376 4278255360
-1.1064744 0.90757942 -0.11734438 4278255360
-1.106355 0.90698874 -0.10736254 4278255360
-1.1101475 0.88823581 -0.12345406 4278255360
-1.1100879 0.88794053 -0.11846316 4278255360
-1.1100283 0.88764524 -0.11347225 4278255360
-1.1137612 0.86859679 -0.12457284 4278255360
-1.1148436 0.86457288 -0.13982528 4278255360
-1.114784 0.8642776 -0.13483438 4278255360
-1.1147242 0.86398232 -0.12984344 4278255360
-1.1186361 0.84581983 -0.15591681 4278255360
-1.1185765 0.84552455 -0.1509259 4278255360
-1.1185169 0.84522915 -0.14593497 4278255360
-1.1184571 0.84493387 -0.14094406 4278255360
-1.1183975 0.84463859 -0.13595316 4278255360
-1.12219 0.82588553 -0.15204468 4278255360
-1.1261618 0.80801833 -0.18310896 4278255360
-1.1261022 0.80772293 -0.17811804 4278255360
-1.1260424 0.80742764 -0.17312711 4278255360
-1.1039853 0.94686997 -0.10002211 4278255360
-1.1049485 0.94225538 -0.10529272 4278255360
-1.1086216 0.92291176 -0.11140244 4278255360
-1.108562 0.92261636 -0.1064115 4278255360
-1.1112721 0.9078871 -0.10725059 4278255360
-1.1122949 0.90356803 -0.11751212 4278255360
-1.1159682 0.88422441 -0.12362181 4278255360
-1.1159086 0.88392913 -0.1186309 4278255360
-1.1158488 0.88363385 -0.11364 4278255360
-1.1197608 0.86547124 -0.13971333 4278255360
-1.1197011 0.86517596 -0.13472243 4278255360
-1.1196415 0.86488068 -0.12973149 4278255360
-1.1195817 0.8645854 -0.12474059 4278255360
-1.1234937 0.84642291 -0.15081395 4278255360
-1.1234341 0.84612751 -0.14582302 4278255360
-1.1233745 0.84583223 -0.14083211 4278255360
-1.1233146 0.84553695 -0.13584121 4278255360
-1.1272864 0.82766974 -0.16690546 4278255360
-1.1272266 0.82737446 -0.16191454 4278255360
-1.127167 0.82707918 -0.15692364 4278255360
-1.1271074 0.8267839 -0.15193273 4278255360
-1.1270475 0.82648849 -0.1469418 4278255360
-1.131079 0.80891669 -0.182997 4278255360
-1.1310194 0.80862129 -0.17800608 4278255360
-1.1309597 0.80832601 -0.17301516 4278255360
-1.1098659 0.94315386 -0.10518076 4278255360
-1.1098063 0.94285858 -0.10018985 4278255360
-1.1134794 0.92351484 -0.10629953 4278255360
-1.1171527 0.90417123 -0.11240925 4278255360
-1.1170931 0.90387583 -0.10741831 4278255360
-1.1208856 0.8851229 -0.12350984 4278255360
-1.120826 0.88482761 -0.11851893 4278255360
-1.1207664 0.88453233 -0.11352803 4278255360
-1.1246185 0.86607444 -0.13461046 4278255360
-1.1245589 0.86577916 -0.12961952 4278255360
-1.1244993 0.86548388 -0.12462862 4278255360
-1.1284113 0.84732139 -0.15070198 4278255360
-1.1283514 0.84702599 -0.14571105 4278255360
-1.1282918 0.84673071 -0.14072014 4278255360
-1.1282322 0.84643543 -0.13572924 4278255360
-1.1321442 0.82827294 -0.16180257 4278255360
-1.1320844 0.82797766 -0.15681167 4278255360
-1.1320248 0.82768238 -0.15182076 4278255360
-1.1319652 0.82738698 -0.14682983 4278255360
-1.1359966 0.80981517 -0.18288505 4278255360
-1.1359367 0.80951977 -0.17789412 4278255360
-1.1358175 0.8089292 -0.16791229 4278255360
-1.1368999 0.80490541 -0.18316475 4278255360
-1.1406925 0.78615224 -0.19925627 4278255360
-1.114783 0.94405222 -0.1050688 4278255360
-1.1147234 0.94375694 -0.1000779 4278255360
-1.1183968 0.9244132 -0.10618758 4278255360
-1.1220698 0.90506959 -0.1122973 4278255360
-1.1220102 0.90477419 -0.10730636 4278255360
-1.1258028 0.88602126 -0.12339789 4278255360
-1.1256835 0.88543069 -0.11341608 4278255360
-1.1294761 0.86667752 -0.12950757 4278255360
-1.1294165 0.86638224 -0.12451667 4278255360
-1.1293569 0.86608696 -0.11952575 4278255360
-1.1333284 0.84821975 -0.15059003 4278255360
-1.1332688 0.84792435 -0.1455991 4278255360
-1.133209 0.84762907 -0.14060819 4278255360
-1.1331494 0.84733379 -0.13561729 4278255360
-1.1330898 0.84703851 -0.13062635 4278255360
-1.1370614 0.8291713 -0.16169062 4278255360
-1.1368823 0.82828534 -0.14671788 4278255360
-1.1379647 0.82426167 -0.16197032 4278255360
-1.1408541 0.81041813 -0.17778216 4278255360
-1.1407347 0.80982757 -0.16780034 4278255360
-1.1456695 0.78734589 -0.20413521 4278255360
-1.1456096 0.7870506 -0.19914432 4278255360
-1.1196408 0.94465542 -0.099965945 4278255360
-1.1233141 0.92531168 -0.10607563 4278255360
-1.1232545 0.9250164 -0.10108472 4278255360
-1.1269875 0.90596807 -0.11218534 4278255360
-1.1307204 0.88691974 -0.12328593 4278255360
-1.1306009 0.88632917 -0.11330412 4278255360
-1.1344533 0.86787128 -0.13438655 4278255360
-1.1343937 0.867576 -0.12939562 4278255360
-1.1343338 0.86728072 -0.12440471 4278255360
-1.1342742 0.86698544 -0.11941379 4278255360
-1.1381862 0.84882283 -0.14548714 4278255360
-1.1381266 0.84852755 -0.14049624 4278255360
-1.1380668 0.84823227 -0.13550533 4278255360
-1.1380072 0.84793699 -0.1305144 4278255360
-1.1419191 0.8297745 -0.15658776 4278255360
-1.1418595 0.82947922 -0.15159686 4278255360
-1.1417997 0.82918382 -0.14660592 4278255360
-1.1428823 0.82516015 -0.16185836 4278255360
-1.1428225 0.82486486 -0.15686746 4278255360
-1.1427629 0.82456958 -0.15187655 4278255360
-1.1467345 0.80670226 -0.18294083 4278255360
-1.1466749 0.80640686 -0.17794991 4278255360
-1.1506464 0.78853965 -0.20901418 4278255360
-1.1505868 0.78824437 -0.20402324 4278255360
-1.1505272 0.78794909 -0.19903235 4278255360
-1.1504674 0.7876538 -0.19404143 4278255360
-1.1245582 0.94555378 -0.099853992 4278255360
-1.1282313 0.92621005 -0.10596368 4278255360
-1.1281717 0.92591476 -0.10097277 4278255360
-1.131845 0.90657103 -0.10708246 4278255360
-1.1355779 0.88752282 -0.11818308 4278255360
-1.1355183 0.88722754 -0.11319217 4278255360
-1.1393108 0.86847436 -0.12928367 4278255360
-1.1392512 0.86817908 -0.12429276 4278255360
-1.1391914 0.8678838 -0.11930184 4278255360
-1.1402738 0.86385989 -0.1345543 4278255360
-1.1429243 0.84883535 -0.13040245 4278255360
-1.1440067 0.84481144 -0.14565489 4278255360
-1.1439471 0.84451616 -0.14066398 4278255360
-1.1438875 0.84422088 -0.13567308 4278255360
-1.1477995 0.82605851 -0.16174641 4278255360
-1.1477399 0.82576323 -0.15675551 4278255360
-1.14768 0.82546794 -0.1517646 4278255360
-1.1476204 0.82517254 -0.14677367 4278255360
-1.1516519 0.80760062 -0.18282887 4278255360
-1.151592 0.80730522 -0.17783795 4278255360
-1.1555638 0.78943801 -0.20890222 4278255360
-1.155504 0.78914273 -0.20391129 4278255360
-1.1554444 0.78884745 -0.1989204 4278255360
-1.1553848 0.78855217 -0.19392948 4278255360
-1.1331489 0.92710847 -0.10585171 4278255360
-1.1330891 0.92681319 -0.1008608 4278255360
-1.136822 0.90776485 -0.11196142 4278255360
-1.1367624 0.90746945 -0.10697049 4278255360
-1.1404357 0.88812596 -0.1130802 4278255360
-1.1413987 0.88351148 -0.11835079 4278255360
-1.1451914 0.86475831 -0.13444233 4278255360
-1.1451316 0.86446303 -0.12945139 4278255360
-1.145072 0.86416775 -0.12446049 4278255360
-1.1450124 0.86387247 -0.11946957 4278255360
-1.1489244 0.84570986 -0.14554292 4278255360
-1.1488645 0.84541458 -0.14055201 4278255360
-1.1488049 0.8451193 -0.13556111 4278255360
-1.1487453 0.84482402 -0.13057017 4278255360
-1.1527767 0.82725221 -0.16662538 4278255360
-1.1527169 0.82695693 -0.16163445 4278255360
-1.1526573 0.82666165 -0.15664354 4278255360
-1.1525977 0.82636636 -0.15165263 4278255360
-1.1525378 0.82607096 -0.1466617 4278255360
-1.1566288 0.80879432 -0.18770783 4278255360
-1.1565096 0.80820364 -0.17772599 4278255360
-1.1604812 0.79033643 -0.20879026 4278255360
-1.1604216 0.79004115 -0.20379934 4278255360
-1.1603618 0.78974587 -0.19880845 4278255360
-1.1603022 0.78945059 -0.19381751 4278255360
-1.1389101 0.92280191 -0.10102855 4278255360
-1.142643 0.90375358 -0.11212917 4278255360
-1.1425831 0.90345818 -0.10713823 4278255360
-1.1463163 0.88440996 -0.11823884 4278255360
-1.1462564 0.88411468 -0.11324793 4278255360
-1.1500492 0.86536151 -0.12933944 4278255360
-1.1499894 0.86506623 -0.12434854 4278255360
-1.1499298 0.86477095 -0.11935762 4278255360
-1.1538417 0.84660834 -0.14543097 4278255360
-1.1537821 0.84631306 -0.14044006 4278255360
-1.1537223 0.84601778 -0.13544916 4278255360
-1.1536627 0.8457225 -0.13045822 4278255360
-1.1576345 0.82785541 -0.16152249 4278255360
-1.1574554 0.82696944 -0.14654975 4278255360
-1.1615465 0.8096928 -0.18759586 4278255360
-1.1614866 0.80939752 -0.18260495 4278255360
-1.161427 0.80910212 -0.17761403 4278255360
-1.1613674 0.80880684 -0.17262311 4278255360
-1.1613076 0.80851156 -0.16763221 4278255360
-1.1625094 0.80507833 -0.19286647 4278255360
-1.1652794 0.79064435 -0.19869648 4278255360
-1.1652195 0.79034907 -0.19370556 4278255360
-1.166302 0.78632516 -0.208958 4278255360
-1.1662424 0.78602988 -0.20396706 4278255360
-1.1740663 0.74970502 -0.25611377 4278255360
-1.1475601 0.90465194 -0.11201721 4278255360
-1.1475005 0.90435654 -0.10702628 4278255360
-1.1512334 0.88530833 -0.11812688 4278255360
-1.1511738 0.88501304 -0.11313598 4278255360
-1.1549664 0.86625987 -0.12922749 4278255360
-1.1549067 0.86596459 -0.12423658 4278255360
-1.1548469 0.86566931 -0.11924566 4278255360
-1.1587589 0.8475067 -0.14531901 4278255360
-1.1586993 0.84721142 -0.14032811 4278255360
-1.1586397 0.84691614 -0.1353372 4278255360
-1.1585798 0.84662086 -0.13034627 4278255360
-1.1626112 0.82904905 -0.16640146 4278255360
-1.1625516 0.82875377 -0.16141054 4278255360
-1.162492 0.82845849 -0.15641963 4278255360
-1.1624322 0.82816321 -0.15142873 4278255360
-1.1662846 0.8097052 -0.17251116 4278255360
-1.1674266 0.80597669 -0.19275452 4278255360
-1.171279 0.7875188 -0.21383695 4278255360
-1.1712193 0.78722352 -0.20884605 4278255360
-1.1711597 0.78692824 -0.20385511 4278255360
-1.1710999 0.78663296 -0.19886422 4278255360
-1.1790433 0.75089866 -0.26099274 4278255360
-1.1789837 0.75060338 -0.25600183 4278255360
-1.1524775 0.90555042 -0.11190525 4278255360
-1.1524179 0.90525502 -0.10691431 4278255360
-1.1561508 0.88620681 -0.11801492 4278255360
-1.1560912 0.88591152 -0.11302401 4278255360
-1.1598837 0.86715835 -0.12911552 4278255360
-1.1598241 0.86686307 -0.12412462 4278255360
-1.1597645 0.86656779 -0.1191337 4278255360
-1.1636765 0.84840518 -0.14520705 4278255360
-1.1636167 0.8481099 -0.14021614 4278255360
-1.1635571 0.84781462 -0.13522524 4278255360
-1.1634974 0.84751934 -0.1302343 4278255360
-1.1674094 0.82935697 -0.15630767 4278255360
-1.1673498 0.82906169 -0.15131676 4278255360
-1.1684918 0.82533294 -0.17156012 4278255360
-1.1684322 0.82503766 -0.1665692 4278255360
-1.1683724 0.82474238 -0.16157828 4278255360
-1.1724038 0.80717045 -0.19763349 4278255360
-1.1722844 0.80657989 -0.18765165 4278255360
-1.1722248 0.80628461 -0.18266074 4278255360
-1.1721652 0.80598921 -0.17766981 4278255360
-1.1762562 0.78871268 -0.21871591 4278255360
-1.1761963 0.78841728 -0.213725 4278255360
-1.1761367 0.788122 -0.20873408 4278255360
-1.1760771 0.78782672 -0.20374316 4278255360
-1.1802278 0.77084547 -0.24978018 4278255360
-1.1838415 0.75120658 -0.25089896 4278255360
-1.184864 0.74688739 -0.26116046 4278255360
-1.1848044 0.7465921 -0.25616956 4278255360
-1.1573949 0.90644878 -0.11179329 4278255360
-1.1573353 0.90615338 -0.10680236 4278255360
-1.1610682 0.88710517 -0.11790296 4278255360
-1.1610084 0.88680989 -0.11291206 4278255360
-1.1648011 0.86805671 -0.12900357 4278255360
-1.1647413 0.86776143 -0.12401266 4278255360
-1.1646817 0.86746615 -0.11902174 4278255360
-1.168534 0.84900826 -0.14010419 4278255360
-1.1684742 0.84871298 -0.13511328 4278255360
-1.1695569 0.84468919 -0.15036573 4278255360
-1.169497 0.84439379 -0.14537479 4278255360
-1.173409 0.8262313 -0.17144816 4278255360
-1.1733494 0.82593602 -0.16645725 4278255360
-1.1732898 0.82564074 -0.16146633 4278255360
-1.1732299 0.82534546 -0.15647541 4278255360
-1.177321 0.80806881 -0.19752152 4278255360
-1.1772614 0.80777353 -0.1925306 4278255360
-1.1772017 0.80747825 -0.18753968 4278255360
-1.1812928 0.7902016 -0.22858579 4278255360
-1.1812329 0.78990632 -0.22359486 4278255360
-1.1811733 0.78961104 -0.21860395 4278255360
-1.1811137 0.78931564 -0.21361303 4278255360
-1.1810541 0.78902036 -0.20862213 4278255360
-1.1860485 0.7668342 -0.24994792 4278255360
-1.1859887 0.7665388 -0.244957 4278255360
-1.1859291 0.76624352 -0.23996608 4278255360
-1.1897814 0.74778575 -0.26104853 4278255360
-1.1897216 0.74749047 -0.25605759 4278255360
-1.189662 0.74719518 -0.25106668 4278255360
-1.1622527 0.9070518 -0.10669039 4278255360
-1.1659856 0.88800359 -0.117791 4278255360
-1.165926 0.88770831 -0.11280009 4278255360
-1.1696589 0.86865985 -0.1239007 4278255360
-1.1695991 0.86836457 -0.11890978 4278255360
-1.1706815 0.86434066 -0.13416223 4278255360
-1.1706219 0.86404538 -0.1291713 4278255360
-1.1744742 0.84558761 -0.15025376 4278255360
-1.1744146 0.84529221 -0.14526282 4278255360
-1.1784458 0.8277204 -0.18131804 4278255360
-1.1783862 0.827425 -0.17632711 4278255360
-1.1783266 0.82712972 -0.1713362 4278255360
-1.1782072 0.82653916 -0.16135436 4278255360
-1.1823578 0.8095578 -0.20739138 4278255360
-1.1822982 0.80926251 -0.20240046 4278255360
-1.1821787 0.80867195 -0.19241863 4278255360
-1.1821191 0.80837667 -0.18742773 4278255360
-1.1861506 0.79080474 -0.22348289 4278255360
-1.1860907 0.79050946 -0.21849199 4278255360
-1.1860311 0.79021406 -0.21350108 4278255360
-1.1871731 0.78648555 -0.23374443 4278255360
-1.1871135 0.78619027 -0.22875352 4278255360
-1.1910255 0.7680279 -0.25482687 4278255360
-1.1909659 0.76773262 -0.24983595 4278255360
-1.1909063 0.76743722 -0.24484505 4278255360
-1.1908464 0.76714194 -0.23985413 4278255360
-1.1907868 0.76684666 -0.23486321 4278255360
-1.1946392 0.74838889 -0.25594565 4278255360
-1.1718061 0.88399225 -0.11795874 4278255360
-1.1755989 0.86523908 -0.13405028 4278255360
-1.175539 0.8649438 -0.12905934 4278255360
-1.1794512 0.84678131 -0.15513271 4278255360
-1.1793914 0.84648603 -0.15014181 4278255360
-1.1834228 0.82891411 -0.186197 4278255360
-1.1833632 0.82861882 -0.18120609 4278255360
-1.1832438 0.82802814 -0.17122425 4278255360
-1.1831841 0.82773286 -0.16623333 4278255360
-1.1871557 0.80986565 -0.19729762 4278255360
-1.1882381 0.80584174 -0.21255004 4278255360
-1.1881785 0.80554646 -0.20755912 4278255360
-1.1881187 0.80525118 -0.2025682 4278255360
-1.1920905 0.78738397 -0.23363249 4278255360
-1.1920307 0.78708869 -0.22864157 4278255360
-1.1919711 0.78679341 -0.22365065 4278255360
-1.1919115 0.78649813 -0.21865973 4278255360
-1.1959429 0.76892632 -0.25471491 4278255360
-1.195883 0.76863104 -0.24972402 4278255360
-1.1958234 0.76833564 -0.24473308 4278255360
-1.1957638 0.76804036 -0.23974217 4278255360
-1.195704 0.76774508 -0.23475127 4278255360
-1.1996758 0.74987787 -0.26581553 4278255360
-1.199616 0.74958259 -0.26082459 4278255360
-1.1805758 0.86643279 -0.13892923 4278255360
-1.1805162 0.8661375 -0.13393833 4278255360
-1.1844878 0.8482703 -0.16500258 4278255360
-1.1844282 0.84797502 -0.16001166 4278255360
-1.1843686 0.84767973 -0.15502076 4278255360
-1.1882806 0.82951725 -0.18109412 4278255360
-1.188221 0.82922184 -0.1761032 4278255360
-1.1893034 0.82519805 -0.19135565 4278255360
-1.193275 0.80733085 -0.2224199 4278255360
-1.1932154 0.80703557 -0.217429 4278255360
-1.1930959 0.80644488 -0.20744717 4278255360
-1.1930363 0.8061496 -0.20245624 4278255360
-1.1970675 0.78857768 -0.23851143 4278255360
-1.1970079 0.78828239 -0.23352052 4278255360
-1.1969483 0.78798711 -0.22852962 4278255360
-1.2009199 0.77012002 -0.25959387 4278255360
-1.2008603 0.76982474 -0.25460294 4278255360
-1.2008007 0.76952946 -0.24961205 4278255360
-1.2007408 0.76923406 -0.24462113 4278255360
-1.2006812 0.76893878 -0.23963021 4278255360
-1.2045336 0.75048101 -0.26071265 4278255360
-1.1817005 0.88608438 -0.12272575 4278255360
-1.1855528 0.86762649 -0.14380819 4278255360
-1.1893456 0.84887344 -0.15989971 4278255360
-1.1892858 0.84857816 -0.15490881 4278255360
-1.1903086 0.84425896 -0.16517033 4278255360
-1.1942801 0.82639176 -0.19623461 4278255360
-1.1942205 0.82609648 -0.19124369 4278255360
-1.1941609 0.82580119 -0.18625277 4278255360
-1.198252 0.80852455 -0.22729887 4278255360
-1.1981921 0.80822927 -0.22230794 4278255360
-1.1981325 0.80793399 -0.21731704 4278255360
-1.2020445 0.78977138 -0.2433904 4278255360
-1.201925 0.78918082 -0.23340856 4278255360
-1.2058372 0.77101845 -0.25948191 4278255360
-1.2057774 0.77072316 -0.254491 4278255360
-1.2057178 0.77042788 -0.24950008 4278255360
-1.2056582 0.77013248 -0.24450918 4278255360
-1.195405 0.84604335 -0.18003112 4278255360
-1.1953454 0.84574795 -0.1750402 4278255360
-1.1952858 0.84545267 -0.17004928 4278255360
-1.199317 0.82788074 -0.20610447 4278255360
-1.1992574 0.82758546 -0.20111355 4278255360
-1.203229 0.80971825 -0.23217782 4278255360
-1.2031097 0.80912769 -0.22219598 4278255360
-1.2079251 0.78605545 -0.24854904 4278255360
-1.2078655 0.78576005 -0.24355812 4278255360
-1.211658 0.76700711 -0.25964963 4278255360
-1.2115984 0.76671183 -0.25465873 4278255360
-1.2115386 0.76641655 -0.24966782 4278255360
-1.200382 0.84723705 -0.18491007 4278255360
-1.2002625 0.84664637 -0.17492825 4278255360
-1.2043536 0.82936984 -0.21597435 4278255360
-1.204294 0.82907444 -0.21098344 4278255360
-1.2042344 0.82877916 -0.20599252 4278255360
-1.2090497 0.80570692 -0.23234557 4278255360
-1.2129021 0.78724915 -0.25342801 4278255360
-1.2128422 0.78695387 -0.24843709 4278255360
-1.2165751 0.76790553 -0.2595377 4278255360
-1.2102938 0.82594907 -0.22612391 4278255360
-1.2102342 0.82565379 -0.22113298 4278255360
-1.2178195 0.78814757 -0.25331604 4278255360
-1.2114782 0.84589589 -0.21491134 4278255360
-1.2114184 0.84560049 -0.20992042 4278255360
-1.2164552 0.84708965 -0.21979029 4278255360
-1.2284369 0.94399357 -0.18385887 4278255360
-1.2283175 0.94340301 -0.17387705 4278255360
-1.2322893 0.92553568 -0.2049413 4278255360
-1.3429437 0.76984096 -0.2428848 4278255360
-1.346617 0.75049734 -0.2489945 4278255360
-1.3465574 0.75020194 -0.24400358 4278255360
-1.3501709 0.73056293 -0.24512236 4278255360
-1.3478608 0.77073938 -0.24277285 4278255360
-1.3478012 0.7704441 -0.23778193 4278255360
-1.3490031 0.76701087 -0.26301619 4278255360
-1.3488836 0.7664203 -0.25303435 4278255360
-1.348824 0.76612502 -0.24804346 4278255360
-1.3487644 0.76582962 -0.24305254 4278255360
-1.3514149 0.75080508 -0.23890071 4278255360
-1.3513551 0.7505098 -0.2339098 4278255360
-1.3524375 0.74648601 -0.24916224 4278255360
-1.3523779 0.74619061 -0.24417132 4278255360
-1.355088 0.73146135 -0.24501042 4278255360
-1.3550284 0.73116606 -0.2400195 4278255360
-1.3586421 0.71152705 -0.24113828 4278255360
-1.352659 0.77104723 -0.23267905 4278255360
-1.3536818 0.76672804 -0.24294059 4278255360
-1.3536222 0.76643276 -0.23794967 4278255360
-1.3535624 0.76613748 -0.23295875 4278255360
-1.3535028 0.7658422 -0.22796784 4278255360
-1.3562129 0.75111294 -0.22880693 4278255360
-1.3573551 0.74738443 -0.24905027 4278255360
-1.359946 0.73206449 -0.23990755 4278255360
-1.3598862 0.7317692 -0.23491663 4278255360
-1.3598266 0.73147392 -0.22992571 4278255360
-1.359767 0.73117864 -0.22493479 4278255360
-1.360909 0.72745001 -0.24517815 4278255360
-1.3634999 0.71213019 -0.23603541 4278255360
-1.36344 0.71183491 -0.23104449 4278255360
-1.3586588 0.76792186 -0.24781956 4278255360
-1.3585989 0.76762646 -0.24282862 4278255360
-1.3585393 0.76733118 -0.23783772 4278255360
-1.3584797 0.7670359 -0.23284681 4278255360
-1.3584199 0.76674062 -0.22785589 4278255360
-1.3583603 0.76644534 -0.22286497 4278255360
-1.3610704 0.75171608 -0.22370405 4278255360
-1.3610108 0.7514208 -0.21871313 4278255360
-1.3622723 0.74828285 -0.24893834 4278255360
-1.3622127 0.74798745 -0.2439474 4278255360
-1.3621531 0.74769217 -0.2389565 4278255360
-1.3620932 0.74739689 -0.23396559 4278255360
-1.3620336 0.7471016 -0.22897467 4278255360
-1.3646245 0.73178178 -0.21983193 4278255360
-1.365886 0.72864383 -0.2500571 4278255360
-1.3658261 0.72834843 -0.2450662 4278255360
-1.3657665 0.72805315 -0.24007528 4278255360
-1.3657069 0.72775787 -0.23508437 4278255360
-1.3656471 0.72746259 -0.23009346 4278255360
-1.3655875 0.72716731 -0.22510253 4278255360
-1.3693802 0.70841414 -0.24119405 4278255360
-1.3693204 0.70811886 -0.23620315 4278255360
-1.3129859 1.0437663 -0.23204468 4278255360
-1.3166592 1.0244225 -0.23815437 4278255360
-1.3598433 0.78786862 -0.23660697 4278255360
-1.3634567 0.7682296 -0.23772575 4278255360
-1.3633375 0.76763904 -0.22774394 4278255360
-1.3632777 0.76734376 -0.222753 4278255360
-1.3632181 0.76704848 -0.2177621 4278255360
-1.36713 0.74888587 -0.24383545 4278255360
-1.3670704 0.74859059 -0.23884453 4278255360
-1.3670106 0.74829531 -0.23385362 4278255360
-1.366951 0.74800003 -0.22886272 4278255360
-1.3668914 0.74770474 -0.22387178 4278255360
-1.3668315 0.74740946 -0.21888088 4278255360
-1.3708034 0.72954226 -0.24994515 4278255360
-1.3707438 0.72924685 -0.24495424 4278255360
-1.3706839 0.72895157 -0.23996332 4278255360
-1.3706243 0.72865629 -0.2349724 4278255360
-1.3705647 0.72836101 -0.2299815 4278255360
-1.3705049 0.72806573 -0.22499056 4278255360
-1.3704453 0.72777045 -0.21999966 4278255360
-1.3743572 0.70960784 -0.24607302 4278255360
-1.3742976 0.70931256 -0.2410821 4278255360
-1.3742378 0.70901728 -0.23609118 4278255360
-1.3188663 1.0400503 -0.23720333 4278255360
-1.3188066 1.0397549 -0.23221241 4278255360
-1.3215168 1.0250256 -0.23305149 4278255360
-1.32248 1.0204113 -0.23832211 4278255360
-1.3224201 1.0201159 -0.23333119 4278255360
-1.3251901 1.005682 -0.23916119 4278255360
-1.3647008 0.78847176 -0.2315041 4278255360
-1.3646412 0.78817648 -0.22651319 4278255360
-1.3645813 0.7878812 -0.22152226 4278255360
-1.3683143 0.76883274 -0.23262288 4278255360
-1.3682547 0.76853746 -0.22763197 4278255360
-1.3681352 0.7679469 -0.21765015 4278255360
-1.3680756 0.7676515 -0.21265922 4278255360
-1.371928 0.74919373 -0.23374166 4278255360
-1.3718684 0.74889845 -0.22875075 4278255360
-1.3718085 0.74860317 -0.22375983 4278255360
-1.3717489 0.74830788 -0.21876892 4278255360
-1.3716893 0.74801248 -0.213778 4278255360
-1.3756609 0.73014528 -0.24484228 4278255360
-1.3756013 0.72984999 -0.23985137 4278255360
-1.3755414 0.72955471 -0.23486045 4278255360
-1.3754818 0.72925943 -0.22986953 4278255360
-1.3754222 0.72896415 -0.22487862 4278255360
-1.3753624 0.72866887 -0.2198877 4278255360
-1.3792744 0.71050626 -0.24596106 4278255360
-1.3201106 1.0602924 -0.23098166 4278255360
-1.3237836 1.0409486 -0.23709138 4278255360
-1.3236644 1.0403579 -0.22710954 4278255360
-1.3273973 1.0213096 -0.23821016 4278255360
-1.3273377 1.0210143 -0.23321922 4278255360
-1.3272779 1.0207189 -0.22822832 4278255360
-1.3310108 1.0016707 -0.23932894 4278255360
-1.3309512 1.0013754 -0.234338 4278255360
-1.3346245 0.98203158 -0.24044771 4278255360
-1.3695586 0.7890749 -0.22640122 4278255360
-1.369499 0.78877962 -0.2214103 4278255360
-1.3694391 0.78848433 -0.2164194 4278255360
-1.3731124 0.7691406 -0.22252908 4278255360
-1.3730528 0.76884532 -0.21753818 4278255360
-1.3740158 0.76423085 -0.22280878 4278255360
-1.3738966 0.76364017 -0.21282697 4278255360
-1.3738368 0.76334488 -0.20783605 4278255360
-1.3749192 0.75932109 -0.22308849 4278255360
-1.3748596 0.75902581 -0.21809757 4278255360
-1.3747401 0.75843513 -0.20811574 4278255360
-1.3767858 0.74979687 -0.22863878 4278255360
-1.3767262 0.74950159 -0.22364788 4278255360
-1.3766663 0.7492063 -0.21865696 4278255360
-1.3766067 0.7489109 -0.21366605 4278255360
-1.3804591 0.73045313 -0.2347485 4278255360
-1.3803992 0.73015785 -0.22975758 4278255360
-1.3803396 0.72986257 -0.22476666 4278255360
-1.38028 0.72956729 -0.21977575 4278255360
-1.384192 0.71140468 -0.24584909 4278255360
-1.3841324 0.7111094 -0.24085818 4278255360
-1.3840725 0.71081412 -0.23586728 4278255360
-1.3250277 1.0611908 -0.23086973 4278255360
-1.3249681 1.0608954 -0.22587879 4278255360
-1.3286412 1.0415518 -0.2319885 4278255360
-1.3285816 1.0412564 -0.22699757 4278255360
-1.328522 1.040961 -0.22200666 4278255360
-1.3323145 1.022208 -0.23809819 4278255360
-1.3322549 1.0219128 -0.23310728 4278255360
-1.3321953 1.0216174 -0.22811635 4278255360
-1.3321354 1.021322 -0.22312544 4278255360
-1.3359282 1.0025692 -0.23921697 4278255360
-1.3358684 1.0022738 -0.23422606 4278255360
-1.3358088 1.0019784 -0.22923513 4278255360
-1.3395417 0.98293 -0.24033576 4278255360
-1.3394821 0.98263472 -0.23534484 4278255360
-1.3744161 0.78967804 -0.22129835 4278255360
-1.3743565 0.78938276 -0.21630745 4278255360
-1.37797 0.76974374 -0.21742623 4278255360
-1.3779104 0.76944834 -0.21243532 4278255360
-1.3778505 0.76915306 -0.2074444 4278255360
-1.3796575 0.75933355 -0.20800379 4278255360
-1.3806801 0.75501448 -0.21826531 4278255360
-1.3806205 0.75471908 -0.2132744 4278255360
-1.3815835 0.75010473 -0.218545 4278255360
-1.3815238 0.74980932 -0.2135541 4278255360
-1.3814642 0.74951404 -0.20856318 4278255360
-1.3853166 0.73105627 -0.22964562 4278255360
-1.3852568 0.73076099 -0.2246547 4278255360
-1.3851972 0.73046571 -0.2196638 4278255360
-1.3890495 0.71200782 -0.24074624 4278255360
-1.3889897 0.71171254 -0.23575531 4278255360
-1.3299451 1.0620892 -0.23075776 4278255360
-1.3298855 1.0617938 -0.22576684 4278255360
-1.333499 1.0421548 -0.22688562 4278255360
-1.3334394 1.0418595 -0.2218947 4278255360
-1.3333797 1.0415642 -0.21690379 4278255360
-1.3371723 1.0228112 -0.23299532 4278255360
-1.3371127 1.0225158 -0.2280044 4278255360
-1.3370531 1.0222205 -0.22301349 4278255360
-1.3408456 1.0034676 -0.23910502 4278255360
-1.340786 1.0031723 -0.2341141 4278255360
-1.3407261 1.0028769 -0.22912318 4278255360
-1.3406665 1.0025816 -0.22413227 4278255360
-1.3444593 0.98382843 -0.24022381 4278255360
-1.3443995 0.98353314 -0.23523287 4278255360
-1.3443398 0.98323774 -0.23024197 4278255360
-1.3792739 0.79028118 -0.21619549 4278255360
-1.3792143 0.78998578 -0.21120457 4278255360
-1.3828278 0.77034676 -0.21232335 4278255360
-1.3865011 0.75100315 -0.21843305 4278255360
-1.387464 0.74638867 -0.22370365 4278255360
-1.3874044 0.74609339 -0.21871275 4278255360
-1.3873448 0.74579799 -0.21372183 4278255360
-1.387285 0.74550271 -0.20873092 4278255360
-1.3883674 0.74147892 -0.22398335 4278255360
-1.3883078 0.74118364 -0.21899244 4278255360
-1.3882482 0.74088824 -0.21400152 4278255360
-1.3881884 0.74059296 -0.20901062 4278255360
-1.389271 0.73656917 -0.22426306 4278255360
-1.3892112 0.73627388 -0.21927214 4278255360
-1.3891516 0.73597848 -0.21428123 4278255360
-1.3901744 0.73165941 -0.22454275 4278255360
-1.3901145 0.73136413 -0.21955183 4278255360
-1.3348029 1.0626922 -0.22565489 4278255360
-1.3347433 1.062397 -0.22066396 4278255360
-1.3382971 1.0424626 -0.21679184 4278255360
-1.3382375 1.0421674 -0.21180092 4278255360
-1.3420899 1.0237095 -0.23288335 4278255360
-1.34203 1.0234141 -0.22789244 4278255360
-1.3419704 1.023119 -0.22290154 4278255360
-1.3419108 1.0228236 -0.21791062 4278255360
-1.345763 1.0043659 -0.23899306 4278255360
-1.3457034 1.0040708 -0.23400213 4278255360
-1.3456438 1.0037754 -0.22901122 4278255360
-1.3455839 1.00348 -0.22402032 4278255360
-1.3455243 1.0031848 -0.2190294 4278255360
-1.3493767 0.98472685 -0.24011184 4278255360
-1.3493171 0.98443156 -0.23512092 4278255360
-1.3492572 0.98413616 -0.23013 4278255360
-1.3491976 0.98384088 -0.2251391 4278255360
-1.3529305 0.96479255 -0.2362397 4278255360
-1.385035 0.78597444 -0.21137232 4278255360
-1.3849754 0.78567916 -0.2063814 4278255360
-1.3859384 0.78106469 -0.21165201 4278255360
-1.3858788 0.78076941 -0.20666109 4278255360
-1.3858192 0.78047413 -0.20167017 4278255360
-1.3857594 0.78017884 -0.19667928 4278255360
-1.3886487 0.76633543 -0.2124911 4278255360
-1.3885293 0.76574486 -0.20250925 4278255360
-1.3913589 0.75160617 -0.21333018 4278255360
-1.3912992 0.75131088 -0.20833926 4278255360
-1.3922622 0.74669641 -0.21360987 4278255360
-1.3950322 0.73226255 -0.21943988 4278255360
-1.3959951 0.72764808 -0.22471048 4278255360
-1.3361065 1.0832295 -0.22442414 4278255360
-1.3396604 1.0632954 -0.22055201 4278255360
-1.3396008 1.0630001 -0.21556109 4278255360
-1.3432741 1.0436563 -0.22167079 4278255360
-1.3431547 1.0430658 -0.21168897 4278255360
-1.3469474 1.0243126 -0.22778048 4278255360
-1.3468876 1.0240173 -0.22278957 4278255360
-1.346828 1.0237221 -0.21779865 4278255360
-1.3506804 1.0052644 -0.2388811 4278255360
-1.3506205 1.0049691 -0.23389019 4278255360
-1.3505609 1.0046737 -0.22889926 4278255360
-1.3505013 1.0043784 -0.22390835 4278255360
-1.3503819 1.0037879 -0.21392652 4278255360
-1.3542342 0.98532999 -0.23500897 4278255360
-1.3541746 0.98503458 -0.23001805 4278255360
-1.3541148 0.9847393 -0.22502713 4278255360
-1.3540552 0.98444402 -0.22003622 4278255360
-1.3539956 0.98414874 -0.2150453 4278255360
-1.3578477 0.96569097 -0.23612775 4278255360
-1.3577881 0.96539557 -0.23113683 4278255360
-1.3899522 0.78687286 -0.21126035 4278255360
-1.3898926 0.78657758 -0.20626944 4278255360
-1.389833 0.7862823 -0.20127851 4278255360
-1.3897731 0.78598702 -0.19628762 4278255360
-1.3916993 0.77675807 -0.20682883 4278255360
-1.3916397 0.77646279 -0.2018379 4278255360
-1.3915801 0.77616751 -0.19684701 4278255360
-1.3924835 0.77125776 -0.1971267 4278255360
-1.3935063 0.76693857 -0.20738822 4278255360
-1.3934464 0.76664329 -0.20239729 4278255360
-1.3971794 0.74759483 -0.21349791 4278255360
-1.3971198 0.74729955 -0.208507 4278255360
-1.3409643 1.0838327 -0.21932127 4278255360
-1.3418081 1.0786276 -0.21461006 4278255360
-1.3445182 1.0638986 -0.21544914 4278255360
-1.3444586 1.0636032 -0.21045822 4278255360
-1.344399 1.063308 -0.2054673 4278255360
-1.3481319 1.0442595 -0.21656792 4278255360
-1.3518052 1.0249157 -0.2226776 4278255360
-1.3554783 1.0055721 -0.2287873 4278255360
-1.3554187 1.0052769 -0.22379638 4278255360
-1.3553591 1.0049815 -0.21880548 4278255360
-1.3552992 1.0046864 -0.21381456 4278255360
-1.3563817 1.0006623 -0.229067 4278255360
-1.3589725 0.98534244 -0.21992426 4278255360
-1.3589129 0.98504716 -0.21493335 4278255360
-1.3601148 0.98161393 -0.24016762 4278255360
-1.360055 0.98131865 -0.2351767 4278255360
-1.3599954 0.98102325 -0.23018579 4278255360
-1.3626459 0.96599871 -0.22603396 4278255360
-1.3637283 0.96197492 -0.2412864 4278255360
-1.3636687 0.96167964 -0.23629548 4278255360
-1.3636088 0.96138424 -0.23130457 4278255360
-1.39481 0.787476 -0.20615748 4278255360
-1.3946908 0.78688544 -0.19617566 4278255360
-1.3946309 0.78659016 -0.19118473 4278255360
-1.3983641 0.76754171 -0.20228533 4278255360
-1.3983042 0.76724643 -0.19729444 4278255360
-1.3982446 0.76695114 -0.19230351 4278255360
-1.399327 0.76292723 -0.20755595 4278255360
-1.3992674 0.76263195 -0.20256503 4278255360
-1.4002304 0.75801748 -0.20783564 4278255360
-1.4001708 0.7577222 -0.20284472 4278255360
-1.4020371 0.74819797 -0.20839503 4278255360
-1.3102911 1.2744396 -0.17835572 4278255360
-1.3140836 1.2556865 -0.19444723 4278255360
-1.314024 1.2553912 -0.18945633 4278255360
-1.3179955 1.237524 -0.2205206 4278255360
-1.3179359 1.2372288 -0.21552968 4278255360
-1.3467252 1.0795259 -0.2144981 4278255360
-1.3466656 1.0792308 -0.20950718 4278255360
-1.3502791 1.0595918 -0.21062596 4278255360
-1.3501599 1.0590012 -0.20064414 4278255360
-1.3601568 1.0052893 -0.20871168 4278255360
-1.3612392 1.0012655 -0.22396414 4278255360
-1.3611796 1.0009701 -0.21897322 4278255360
-1.3637705 0.98565024 -0.20983046 4278255360
-1.365032 0.9825123 -0.24005567 4278255360
-1.3649724 0.98221701 -0.23506476 4278255360
-1.3649125 0.98192161 -0.23007382 4278255360
-1.3648529 0.98162633 -0.22508292 4278255360
-1.3647933 0.98133105 -0.220092 4278255360
-1.3647335 0.98103577 -0.21510109 4278255360
-1.3686454 0.96287328 -0.24117444 4278255360
-1.3685858 0.962578 -0.23618354 4278255360
-1.3685262 0.9622826 -0.2311926 4278255360
-1.3684664 0.96198732 -0.2262017 4278255360
-1.3977416 0.79730803 -0.19051339 4278255360
-1.3996079 0.7877838 -0.19606371 4278255360
-1.3995483 0.78748852 -0.19107278 4278255360
-1.4032812 0.76844007 -0.20217338 4278255360
-1.4031618 0.7678495 -0.19219156 4278255360
-1.311595 1.2949771 -0.17712499 4278255360
-1.3115354 1.2946818 -0.17213406 4278255360
-1.3153279 1.2759286 -0.1882256 4278255360
-1.3152683 1.2756333 -0.18323468 4278255360
-1.3192399 1.2577661 -0.21429895 4278255360
-1.3191803 1.2574708 -0.20930803 4278255360
-1.3191204 1.2571756 -0.20431712 4278255360
-1.3190608 1.2568803 -0.1993262 4278255360
-1.3190012 1.256585 -0.19433528 4278255360
-1.3229132 1.2384224 -0.22040865 4278255360
-1.3228533 1.2381271 -0.21541773 4278255360
-1.3516428 1.0804245 -0.21438614 4278255360
-1.351583 1.0801291 -0.20939523 4278255360
-1.3551369 1.060195 -0.20552307 4278255360
-1.3550177 1.0596044 -0.19554126 4278255360
-1.3649549 1.0055971 -0.19861791 4278255360
-1.366097 1.0018687 -0.21886125 4278255360
-1.3659778 1.0012782 -0.20887941 4278255360
-1.3659182 1.0009828 -0.20388851 4278255360
-1.3658583 1.0006874 -0.1988976 4278255360
-1.3698897 0.98311549 -0.23495279 4278255360
-1.3698301 0.98282009 -0.22996187 4278255360
-1.3697703 0.98252481 -0.22497095 4278255360
-1.3697107 0.98222953 -0.21998005 4278255360
-1.3696511 0.98193425 -0.21498913 4278255360
-1.3695912 0.98163897 -0.20999821 4278255360
-1.3735032 0.96347648 -0.23607157 4278255360
-1.3734436 0.96318108 -0.23108065 4278255360
-1.373384 0.9628858 -0.22608973 4278255360
-1.3733242 0.96259052 -0.22109883 4278255360
-1.3771169 0.94383758 -0.23719035 4278255360
-1.4035623 0.79329675 -0.19068113 4278255360
-1.4045253 0.78868228 -0.19595174 4278255360
-1.4044657 0.788387 -0.19096082 4278255360
-1.408139 0.76904327 -0.19707052 4278255360
-1.4080794 0.76874799 -0.1920796 4278255360
-1.4080195 0.7684527 -0.18708868 4278255360
-1.4116333 0.74881369 -0.18820746 4278255360
-1.3128986 1.3155144 -0.17589426 4278255360
-1.3164525 1.2955801 -0.1720221 4278255360
-1.320245 1.276827 -0.18811364 4278255360
-1.3201854 1.2765317 -0.18312272 4278255360
-1.324157 1.2586646 -0.214187 4278255360
-1.3240974 1.2583692 -0.20919608 4278255360
-1.3240378 1.2580739 -0.20420517 4278255360
-1.3239779 1.2577786 -0.19921425 4278255360
-1.3278303 1.2393209 -0.2202967 4278255360
-1.3565004 1.0810275 -0.20928328 4278255360
-1.3564405 1.0807323 -0.20429234 4278255360
-1.3599946 1.0607982 -0.20042022 4278255360
-1.3709548 1.0024717 -0.21375839 4278255360
-1.3708949 1.0021765 -0.20876746 4278255360
-1.3708353 1.0018811 -0.20377655 4278255360
-1.3707757 1.0015857 -0.19878565 4278255360
-1.3747473 0.98371845 -0.22984992 4278255360
-1.3746877 0.98342317 -0.22485901 4278255360
-1.3746278 0.98312789 -0.21986809 4278255360
-1.3745682 0.98283261 -0.21487717 4278255360
-1.3745086 0.98253733 -0.20988625 4278255360
-1.3744488 0.98224205 -0.20489535 4278255360
-1.3784206 0.96437484 -0.23595962 4278255360
-1.3783607 0.96407944 -0.2309687 4278255360
-1.3783011 0.96378416 -0.22597779 4278255360
-1.3782415 0.96348888 -0.22098687 4278255360
-1.410346 0.78467089 -0.19611949 4278255360
-1.4102864 0.78437561 -0.19112857 4278255360
-1.4102266 0.78408033 -0.18613765 4278255360
-1.4112494 0.77976114 -0.19639918 4278255360
-1.4111898 0.77946585 -0.19140826 4278255360
-1.41113 0.77917057 -0.18641734 4278255360
-1.4121528 0.77485138 -0.19667888 4278255360
-1.4120932 0.7745561 -0.19168796 4278255360
-1.4120336 0.77426082 -0.18669704 4278255360
-1.4129369 0.76935107 -0.18697673 4278255360
-1.4164908 0.74941677 -0.1831046 4278255360
-1.317816 1.3164129 -0.17578229 4278255360
-1.3214297 1.2967739 -0.17690107 4278255360
-1.3252223 1.2780207 -0.19299258 4278255360
-1.3251626 1.2777255 -0.18800168 4278255360
-1.3251028 1.2774302 -0.18301077 4278255360
-1.3289552 1.2589724 -0.2040932 4278255360
-1.3288956 1.2586771 -0.1991023 4278255360
-1.3299181 1.2543579 -0.20936382 4278255360
-1.3578043 1.1015651 -0.20805253 4278255360
-1.3612983 1.0813355 -0.19918948 4278255360
-1.3757527 1.0027797 -0.2036646 4278255360
-1.3756931 1.0024843 -0.19867368 4278255360
-1.3756335 1.0021889 -0.19368277 4278255360
-1.3755736 1.0018938 -0.18869184 4278255360
-1.375514 1.0015984 -0.18370095 4278255360
-1.3795455 0.98402637 -0.21975613 4278255360
-1.379426 0.98343581 -0.20977429 4278255360
-1.3793664 0.98314053 -0.20478338 4278255360
-1.383338 0.96527332 -0.23584767 4278255360
-1.3832784 0.96497792 -0.23085673 4278255360
-1.3832185 0.96468264 -0.22586583 4278255360
-1.3831589 0.96438736 -0.22087492 4278255360
-1.3830397 0.96379679 -0.21089306 4278255360
-1.4143004 0.79018384 -0.1907369 4278255360
-1.4142406 0.78988856 -0.185746 4278255360
-1.4178543 0.77024955 -0.18686478 4278255360
-1.4177947 0.76995426 -0.18187387 4278255360
-1.4186981 0.76504451 -0.18215357 4278255360
-1.4196014 0.76013476 -0.18243326 4278255360
-1.4214678 0.75061053 -0.18798356 4278255360
-1.4214082 0.75031525 -0.18299265 4278255360
-1.315506 1.3565893 -0.17343278 4278255360
-1.3191197 1.3369502 -0.17455156 4278255360
-1.3227332 1.3173113 -0.17567034 4278255360
-1.3264065 1.2979676 -0.18178003 4278255360
-1.3263469 1.2976723 -0.17678912 4278255360
-1.3300798 1.2786238 -0.18788972 4278255360
-1.3300202 1.2783285 -0.18289882 4278255360
-1.3311026 1.2743046 -0.19815126 4278255360
-1.3310428 1.2740093 -0.19316033 4278255360
-1.3349547 1.2558469 -0.21923369 4278255360
-1.3348951 1.2555516 -0.21424277 4278255360
-1.3347757 1.254961 -0.20426095 4278255360
-1.3627214 1.1024635 -0.20794058 4278255360
-1.3661559 1.0819385 -0.19408661 4278255360
-1.3660963 1.0816431 -0.18909571 4278255360
-1.3806102 1.0033827 -0.19856173 4278255360
-1.3805506 1.0030873 -0.19357082 4278255360
-1.380491 1.0027921 -0.18857989 4278255360
-1.3803716 1.0022016 -0.17859808 4278255360
-1.384403 0.98462945 -0.21465327 4278255360
-1.3843431 0.98433417 -0.20966233 4278255360
-1.3842835 0.98403889 -0.20467143 4278255360
-1.3842239 0.98374349 -0.19968052 4278255360
-1.3841641 0.98344821 -0.1946896 4278255360
-1.3841045 0.98315293 -0.18969868 4278255360
-1.3879569 0.96469516 -0.21078111 4278255360
-1.4164476 0.80551618 -0.18479496 4278255360
-1.420121 0.78617245 -0.19090465 4278255360
-1.4200613 0.78587717 -0.18591374 4278255360
-1.4200017 0.78558189 -0.18092284 4278255360
-1.4227118 0.77085263 -0.18176192 4278255360
-1.4226522 0.77055722 -0.17677099 4278255360
-1.4236748 0.76623815 -0.18703252 4278255360
-1.4254818 0.75641865 -0.18759191 4278255360
-1.425422 0.75612336 -0.182601 4278255360
-1.4253623 0.75582796 -0.17761007 4278255360
-1.4263852 0.75150889 -0.18787161 4278255360
-1.4263253 0.75121361 -0.1828807 4278255360
-1.4262657 0.75091821 -0.17788976 4278255360
-1.4298196 0.73098391 -0.17401764 4278255360
-1.3249404 1.332939 -0.1747193 4278255360
-1.3285542 1.3133 -0.17583808 4278255360
-1.3322275 1.2939563 -0.18194777 4278255360
-1.33602 1.2752031 -0.19803929 4278255360
-1.3359604 1.2749078 -0.19304837 4278255360
-1.3398724 1.2567453 -0.21912174 4278255360
-1.3398125 1.2564501 -0.21413082 4278255360
-1.3397529 1.2561548 -0.2091399 4278255360
-1.3816755 1.0227388 -0.17736733 4278255360
-1.385468 1.0039858 -0.19345886 4278255360
-1.3853488 1.0033952 -0.18347704 4278255360
-1.3892009 0.98493731 -0.20455948 4278255360
-1.3891413 0.98464191 -0.19956855 4278255360
-1.3889623 0.98375607 -0.18459582 4278255360
-1.3928742 0.96559358 -0.21066916 4278255360
-1.4223282 0.80180013 -0.18995361 4278255360
-1.4222686 0.80150485 -0.18496269 4278255360
-1.4232316 0.79689038 -0.19023331 4278255360
-1.423172 0.7965951 -0.18524238 4278255360
-1.4231124 0.79629982 -0.18025148 4278255360
-1.4240158 0.79139006 -0.18053117 4278255360
-1.4250386 0.78707087 -0.19079269 4278255360
-1.4249787 0.78677559 -0.18580177 4278255360
-1.4285326 0.76684129 -0.18192965 4278255360
-1.428473 0.76654589 -0.17693873 4278255360
-1.4311235 0.75152135 -0.17278689 4278255360
-1.4321463 0.74720228 -0.18304843 4278255360
-1.4320865 0.74690688 -0.17805751 4278255360
-1.4330497 0.74229252 -0.18332814 4278255360
-1.4329901 0.74199712 -0.1783372 4278255360
-1.4329302 0.74170184 -0.1733463 4278255360
-1.4338934 0.73708737 -0.1786169 4278255360
-1.4338338 0.73679209 -0.17362599 4278255360
-1.4347372 0.73188233 -0.17390569 4278255360
-1.4356406 0.72697258 -0.17418538 4278255360
-1.4382911 0.71194804 -0.17003354 4278255360
-1.3372042 1.2951499 -0.18682672 4278255360
-1.3371446 1.2948546 -0.18183582 4278255360
-1.340997 1.2763968 -0.20291826 4278255360
-1.3409371 1.2761015 -0.19792734 4278255360
-1.3408775 1.2758062 -0.19293642 4278255360
-1.3448491 1.257939 -0.22400071 4278255360
-1.3447895 1.2576437 -0.21900979 4278255360
-1.3447299 1.2573484 -0.21401887 4278255360
-1.3446701 1.2570531 -0.20902795 4278255360
-1.3903854 1.0048842 -0.1933469 4278255360
-1.3902659 1.0042937 -0.18336509 4278255360
-1.3902063 1.0039983 -0.17837416 4278255360
-1.3940585 0.98554033 -0.1994566 4278255360
-1.3939989 0.98524505 -0.1944657 4278255360
-1.3939393 0.98494977 -0.18947476 4278255360
-1.3976722 0.96590132 -0.20057538 4278255360
-1.3976126 0.96560603 -0.19558448 4278255360
-1.3987546 0.96187752 -0.21582782 4278255360
-1.398695 0.96158224 -0.2108369 4278255360
-1.3986351 0.96128696 -0.205846 4278255360
-1.4298961 0.78767401 -0.18568982 4278255360
-1.4298363 0.78737873 -0.18069892 4278255360
-1.4297767 0.78708333 -0.175708 4278255360
-1.4307995 0.78276426 -0.18596952 4278255360
-1.4307396 0.78246897 -0.18097861 4278255360
-1.43068 0.78217357 -0.17598769 4278255360
-1.4316432 0.77755922 -0.18125831 4278255360
-1.4315834 0.77726382 -0.17626739 4278255360
-1.4335096 0.76803499 -0.1868086 4278255360
-1.43345 0.76773971 -0.1818177 4278255360
-1.4333901 0.76744431 -0.17682678 4278255360
-1.4333305 0.76714903 -0.17183585 4278255360
-1.4370635 0.7481007 -0.18293647 4278255360
-1.4370039 0.7478053 -0.17794555 4278255360
-1.4369442 0.74751002 -0.17295463 4278255360
-1.439714 0.73307604 -0.17878464 4278255360
-1.4396544 0.73278075 -0.17379373 4278255360
-1.4405577 0.727871 -0.17407343 4278255360
-1.4404981 0.72757572 -0.16908251 4278255360
-1.4414015 0.72266597 -0.1693622 4278255360
-1.4441116 0.7079367 -0.17020129 4278255360
-1.3347752 1.3347358 -0.17449538 4278255360
-1.3384485 1.315392 -0.18060507 4278255360
-1.3421218 1.2960484 -0.18671477 4278255360
-1.3459144 1.2772952 -0.20280629 4278255360
-1.3458548 1.277 -0.19781539 4278255360
-1.3457949 1.2767047 -0.19282445 4278255360
-1.3497667 1.2588375 -0.22388874 4278255360
-1.3497069 1.2585422 -0.21889782 4278255360
-1.3496473 1.2582469 -0.2139069 4278255360
-1.3495877 1.2579515 -0.20891599 4278255360
-1.3781979 1.099363 -0.19291165 4278255360
-1.3914504 1.0242404 -0.1721525 4278255360
-1.3924732 1.0199212 -0.18241404 4278255360
-1.3951833 1.005192 -0.18325312 4278255360
-1.3951237 1.0048968 -0.1782622 4278255360
-1.3950641 1.0046015 -0.17327128 4278255360
-1.3961465 1.0005774 -0.18852372 4278255360
-1.3988566 0.98584819 -0.18936281 4278255360
-1.398797 0.98555291 -0.18437192 4278255360
-1.3998795 0.981529 -0.19962434 4278255360
-1.3998199 0.98123372 -0.19463342 4278255360
-1.4036124 0.96248066 -0.21072493 4278255360
-1.4035528 0.96218538 -0.20573403 4278255360
-1.4034929 0.96188998 -0.20074312 4278255360
-1.4034333 0.9615947 -0.1957522 4278255360
-1.4311998 0.80821145 -0.18445909 4278255360
-1.4348135 0.78857243 -0.18557787 4278255360
-1.4347539 0.78827715 -0.18058696 4278255360
-1.4346941 0.78798175 -0.17559603 4278255360
-1.437464 0.77354789 -0.18142605 4278255360
-1.4374044 0.77325249 -0.17643511 4278255360
-1.4373446 0.77295721 -0.17144421 4278255360
-1.4383078 0.76834273 -0.17671481 4278255360
-1.4382479 0.76804745 -0.1717239 4278255360
-1.4419212 0.74870372 -0.17783359 4278255360
-1.4418616 0.74840844 -0.17284268 4278255360
-1.4418018 0.74811316 -0.16785176 4278255360
-1.4454155 0.72847414 -0.16897056 4278255360
-1.4472222 0.71865463 -0.16952994 4278255360
