# .PCD v0.7 - Point Cloud Data file format
VERSION 0.7
FIELDS x y z rgb
SIZE 4 4 4 4
TYPE F F F U
COUNT 1 1 1 1
WIDTH 326
HEIGHT 1
VIEWPOINT 0 0 0 1 0 0 0
POINTS 326
DATA ascii
1.4339246 0.547279 -0.16785859 4286578816
1.42699 0.55447137 -0.16743217 4286578816
1.4415351 0.57537097 -0.16614977 4286578816
1.4235227 0.5580675 -0.16721897 4286578816
1.4236579 0.56512439 -0.16679193 4286578816
1.7354842 1.1526527 -0.080770507 4286578816
1.7212095 1.1458669 -0.081198826 4286578816
1.7177423 1.1494631 -0.080985621 4286578816
1.717736 1.1491611 -0.075994775 4286578816
1.714275 1.1530592 -0.080772415 4286578816
1.7142688 1.1527573 -0.075781569 4286578816
1.7396213 1.184039 -0.07385762 4286578816
1.7108015 1.1563535 -0.075568363 4286578816
1.6963978 1.1428126 -0.081414595 4286578816
1.7253466 1.1772531 -0.074285939 4286578816
1.7109367 1.1634103 -0.075141296 4286578816
1.696533 1.1498694 -0.080987558 4286578816
1.7218794 1.1808493 -0.074072734 4286578816
1.6930656 1.1534656 -0.080774352 4286578816
1.4445757 0.91860241 -0.16041088 4286578816
1.4301658 0.90475971 -0.16126625 4286578816
1.7040021 1.1706027 -0.074714914 4286578816
1.4411083 0.92219859 -0.16019768 4286578816
1.4266984 0.90835577 -0.16105305 4286578816
1.4376411 0.92579478 -0.15998447 4286578816
1.4232311 0.91195196 -0.16083984 4286578816
1.4377763 0.93285161 -0.15955742 4286578816
1.4233665 0.91900891 -0.16041279 4286578816
1.434309 0.9364478 -0.15934421 4286578816
1.4198992 0.92260498 -0.16019958 4286578816
1.4162967 0.91914433 -0.16041343 4286578816
1.4308417 0.94004399 -0.15913101 4286578816
1.4164319 0.92620116 -0.15998638 4286578816
1.4129646 0.92979735 -0.15977317 4286578816
1.3985546 0.91595453 -0.16062854 4286578816
1.3986897 0.92301136 -0.1602015 4286578816
1.1365073 0.71211809 -0.163268 4286578816
1.1186302 0.70187151 -0.16391017 4286578816
1.1295729 0.71931046 -0.16284159 4286578816
1.1151628 0.7054677 -0.16369696 4286578816
1.1261055 0.72290665 -0.16262838 4286578816
1.1116955 0.70906383 -0.16348375 4286578816
1.1262407 0.72996348 -0.16220133 4286578816
1.1118307 0.71612072 -0.1630567 4286578816
1.1227734 0.73355967 -0.16198812 4286578816
1.1083634 0.71971691 -0.1628435 4286578816
1.1193061 0.73715585 -0.16177492 4286578816
1.1048963 0.72331303 -0.16263029 4286578816
1.101429 0.72690922 -0.16241708 4286578816
0.87983894 0.60438728 -0.1751146 4286578816
0.89078164 0.62182623 -0.17404602 4286578816
0.87637162 0.60798341 -0.1749014 4286578816
0.87276912 0.60452276 -0.17511523 4286578816
0.88731432 0.62542242 -0.17383282 4286578816
0.88371181 0.62196165 -0.17404667 4286578816
0.8729043 0.6115796 -0.17468819 4286578816
0.8728981 0.61127776 -0.16969731 4286578816
0.86943698 0.6151759 -0.17447498 4286578816
0.86943078 0.61487406 -0.16948411 4286578816
0.88037968 0.63261485 -0.17340641 4286578816
0.86957216 0.62223268 -0.17404793 4286578816
0.88051486 0.63967168 -0.17297935 4286578816
0.88050842 0.63936985 -0.16798849 4286578816
0.86610484 0.62582886 -0.17383473 4286578816
1.633587 1.3709195 -0.14283176 4286578816
0.87704754 0.64326781 -0.17276615 4286578816
0.86263752 0.62942499 -0.17362152 4286578816
1.6337222 1.3779763 -0.14240472 4286578816
1.6301197 1.3745157 -0.14261855 4286578816
0.87358022 0.646864 -0.17255294 4286578816
0.85917044 0.63302118 -0.17340831 4286578816
1.6302549 1.3815725 -0.14219151 4286578816
0.8701129 0.65046018 -0.17233974 4286578816
0.85930562 0.64007813 -0.17298126 4286578816
0.8558383 0.64367431 -0.17276806 4286578816
1.6485314 1.4126878 -0.13527735 4286578816
1.6449289 1.4092271 -0.13549118 4286578816
1.6269228 1.3922255 -0.14155127 4286578816
1.6414617 1.4128232 -0.13527797 4286578816
1.6378592 1.4093626 -0.1354918 4286578816
1.3356814 1.1410425 -0.17213696 4286578816
1.3320727 1.1372799 -0.16735993 4286578816
1.3250093 1.1377172 -0.17235145 4286578816
1.3250031 1.1374153 -0.16736057 4286578816
1.3214006 1.1339546 -0.16757442 4286578816
1.3359456 1.1548543 -0.166292 4286578816
1.3179395 1.1378527 -0.17235208 4286578816
1.3179333 1.1375508 -0.16736121 4286578816
1.3324783 1.1584504 -0.16607879 4286578816
1.3144722 1.1414489 -0.17213887 4286578816
1.3108697 1.1379882 -0.17235272 4286578816
1.3108635 1.1376863 -0.16736186 4286578816
1.329011 1.1620466 -0.16586559 4286578816
1.3254085 1.1585859 -0.16607943 4286578816
1.3218062 1.1551253 -0.16629328 4286578816
1.3146074 1.1485057 -0.17171183 4286578816
1.3147364 1.1552607 -0.1662939 4286578816
1.3111339 1.1518 -0.16650775 4286578816
1.3112752 1.1591587 -0.17107157 4286578816
1.3076727 1.1556981 -0.17128542 4286578816
1.3042054 1.1592944 -0.17107221 4286578816
1.3006029 1.1558336 -0.17128605 4286578816
0.4840672 0.61903089 -0.17472328 4286578816
0.48059964 0.62262708 -0.17451006 4286578816
0.48073483 0.62968385 -0.17408302 4286578816
0.4772675 0.6332801 -0.1738698 4286578816
0.46285772 0.61943728 -0.17472517 4286578816
0.47380662 0.63717812 -0.1786475 4286578816
0.47380042 0.63687617 -0.17365661 4286578816
0.4593904 0.62303334 -0.17451198 4286578816
1.2520962 1.3926508 -0.14700301 4286578816
0.47394156 0.64423507 -0.17822045 4286578816
0.45952559 0.63009042 -0.17408495 4286578816
1.2450264 1.3927863 -0.14700364 4286578816
1.2414238 1.3893255 -0.14721747 4286578816
0.47047448 0.64783114 -0.17800725 4286578816
0.45605826 0.63368648 -0.17387174 4286578816
1.2379565 1.3929218 -0.14700426 4286578816
0.45259094 0.63728267 -0.17365853 4286578816
1.2344894 1.3965179 -0.14679109 4286578816
1.2308869 1.3930571 -0.14700492 4286578816
1.2272844 1.3895965 -0.14721878 4286578816
0.92112756 1.0985695 -0.100087 4286578816
0.91405773 1.0987052 -0.10008763 4286578816
0.92153311 1.1197402 -0.09880586 4286578816
0.9179306 1.1162796 -0.099019691 4286578816
0.89325404 1.1202822 -0.098808423 4286578816
0.89338923 1.1273389 -0.098381355 4286578816
0.50916553 1.0060085 -0.19636545 4286578816
0.50556302 1.0025477 -0.19657928 4286578816
0.50196052 0.99908704 -0.19679312 4286578816
0.50930047 1.0130653 -0.19593839 4286578816
0.49489069 0.99922258 -0.19679375 4286578816
0.49128819 0.99576181 -0.1970076 4286578816
0.50943589 1.0201222 -0.19551134 4286578816
0.50583339 1.0166614 -0.19572519 4286578816
0.49142337 1.0028187 -0.19658056 4286578816
0.48782086 0.99935788 -0.19679441 4286578816
0.50236607 1.0202577 -0.19551198 4286578816
0.48795605 1.006415 -0.19636735 4286578816
0.49529648 1.0203931 -0.19551262 4286578816
0.49169397 1.0169324 -0.19572645 4286578816
0.48448896 1.0100111 -0.19615415 4286578816
0.49543142 1.0274501 -0.19508557 4286578816
0.48822641 1.0205287 -0.19551325 4286578816
0.4810214 1.0136074 -0.19594094 4286578816
0.059481382 0.60629076 -0.18103358 4286578816
1.252075 1.7606488 -0.13976978 4286578816
0.059616804 0.61334759 -0.18060654 4286578816
1.2486076 1.7642452 -0.13955657 4286578816
1.2452755 1.7748982 -0.13891633 4286578816
0.92935753 1.5277177 -0.16929074 4286578816
0.91494751 1.5138749 -0.17014611 4286578816
0.92589021 1.531314 -0.16907752 4286578816
0.9222877 1.5278533 -0.16929136 4286578816
0.91148019 1.5174712 -0.16993289 4286578816
0.91521788 1.5279887 -0.16929202 4286578816
0.91161561 1.5245279 -0.16950585 4286578816
0.59928107 1.2799026 -0.1846938 4286578816
0.59581375 1.2834988 -0.18448058 4286578816
0.58860874 1.2765775 -0.18490827 4286578816
0.59955144 1.2940164 -0.18383969 4286578816
0.59594893 1.2905556 -0.18405354 4286578816
0.59248161 1.2941519 -0.18384033 4286578816
0.85621142 1.770349 -0.1747416 4286578816
0.8418014 1.7565062 -0.17559697 4286578816
0.84193659 1.7635632 -0.17516991 4286578816
0.83846927 1.7671593 -0.17495671 4286578816
0.83846307 1.7668574 -0.16996585 4286578816
0.84940577 1.7842964 -0.16889726 4286578816
0.83500195 1.7707555 -0.1747435 4286578816
0.84954095 1.7913532 -0.16847022 4286578816
0.83166361 1.7811067 -0.16911238 4286578816
0.53358555 1.5423613 -0.1688994 4286578816
-0.48956871 0.55710882 -0.18970379 4286578816
0.53372073 1.5494182 -0.16847236 4286578816
-0.48582458 0.56792837 -0.19405377 4286578816
-0.48942733 0.56446767 -0.19426762 4286578816
-0.48943353 0.56416571 -0.18927675 4286578816
0.53025341 1.5530143 -0.16825916 4286578816
0.52678609 1.5566106 -0.16804595 4286578816
-0.12888384 0.92585844 -0.19199273 4286578816
-0.13248634 0.92239767 -0.19220658 4286578816
-0.57008576 0.78425235 -0.17105505 4286578816
-0.57355332 0.78784865 -0.17084184 4286578816
-0.57715583 0.78438789 -0.1710557 4286578816
-0.58422542 0.78452331 -0.17105633 4286578816
-0.78019929 0.70709491 -0.17598492 4286578816
0.22869301 1.6861653 -0.16559058 4286578816
-0.78366637 0.71069103 -0.17577173 4286578816
-0.78367257 0.71038908 -0.17078084 4286578816
-0.78726888 0.70723027 -0.17598557 4286578816
-0.78727508 0.70692831 -0.17099468 4286578816
-0.79087138 0.70376962 -0.17619941 4286578816
-0.79447389 0.70030886 -0.17641325 4286578816
0.22162318 1.6863009 -0.16559121 4286578816
-0.78353143 0.71774787 -0.17534468 4286578816
-0.79434514 0.70706385 -0.17099532 4286578816
-0.80140853 0.70750117 -0.17598686 4286578816
-0.80141473 0.70719922 -0.17099597 4286578816
-0.78686309 0.72840101 -0.17470442 4286578816
-0.80848432 0.70733494 -0.17099659 4286578816
-0.79393315 0.72853631 -0.17470507 4286578816
-0.79753566 0.72507566 -0.1749189 4286578816
-0.80113816 0.7216149 -0.17513275 4286578816
-0.80474067 0.71815425 -0.1753466 4286578816
-0.80834317 0.71469349 -0.17556044 4286578816
-0.81555438 0.70747012 -0.17099725 4286578816
-0.80100274 0.72867197 -0.1747057 4286578816
-0.81902146 0.71106642 -0.17078403 4286578816
-0.82262397 0.7076059 -0.17099787 4286578816
-0.82969356 0.7077412 -0.17099851 4286578816
-0.83676362 0.70787674 -0.17099915 4286578816
-1.0187261 0.62342256 -0.1813444 4286578816
-1.0223224 0.62026376 -0.18654911 4286578816
-1.0223286 0.61996192 -0.18155824 4286578816
-1.0259249 0.61680299 -0.18676296 4286578816
-1.0259311 0.61650115 -0.18177208 4286578816
-1.0295274 0.61334246 -0.18697679 4286578816
-1.01138 0.63770264 -0.18548054 4286578816
-1.0149825 0.63424188 -0.18569438 4286578816
-1.018585 0.63078123 -0.18590823 4286578816
-1.0221875 0.62732047 -0.18612207 4286578816
-1.0112445 0.64475954 -0.18505348 4286578816
-1.0435317 0.62067014 -0.18655103 4286578816
-1.0471342 0.61720926 -0.18676488 4286578816
-1.0361917 0.63464838 -0.18569629 4286578816
-1.0397942 0.63118762 -0.18591014 4286578816
-1.0433967 0.62772709 -0.18612397 4286578816
-0.64334226 1.0210342 -0.19689648 4286578816
-1.0324538 0.64516592 -0.1850554 4286578816
-1.0360563 0.64170516 -0.18526925 4286578816
-0.65041184 1.02117 -0.1968971 4286578816
-0.64307189 1.035148 -0.19604239 4286578816
-0.65748191 1.0213052 -0.19689776 4286578816
-0.25747132 1.4124993 -0.17273413 4286578816
-0.6645515 1.021441 -0.19689839 4286578816
-0.668154 1.0179802 -0.19711223 4286578816
-0.26454115 1.4126347 -0.17273478 4286578816
-0.27161098 1.4127703 -0.17273541 4286578816
-0.27868056 1.4129057 -0.17273605 4286578816
-0.28228307 1.4094449 -0.1729499 4286578816
-0.28935289 1.4095806 -0.17295054 4286578816
-1.2925894 0.5410313 -0.1966888 4286578816
-1.2780449 0.56193101 -0.19540638 4286578816
-1.2852499 0.55500948 -0.19583406 4286578816
-1.288852 0.55154884 -0.1960479 4286578816
-1.292455 0.54808819 -0.19626175 4286578816
-1.274307 0.57244837 -0.19476549 4286578816
-1.2779095 0.56898773 -0.19497934 4286578816
-1.2851145 0.56206644 -0.19540702 4286578816
-1.2741716 0.57950526 -0.19433843 4286578816
-1.3064587 0.55541593 -0.19583598 4286578816
-1.3100612 0.55195504 -0.19604982 4286578816
-1.3136637 0.54849464 -0.19626367 4286578816
-1.2955163 0.57285506 -0.1947674 4286578816
-1.2991188 0.56939417 -0.19498125 4286578816
-1.3027213 0.56593353 -0.19519509 4286578816
-1.3063238 0.56247288 -0.19540894 4286578816
-0.73079419 1.2553703 -0.17782132 4286578816
-0.73786426 1.2555058 -0.17782195 4286578816
-0.73412633 1.2660233 -0.17718107 4286578816
-0.73772883 1.2625626 -0.17739491 4286578816
-0.74853635 1.2521805 -0.17803644 4286578816
-0.73038888 1.2765409 -0.17654017 4286578816
-0.75200391 1.2557768 -0.17782323 4286578816
-0.74106097 1.2732157 -0.17675465 4286578816
-0.74813104 1.2733512 -0.17675529 4286578816
-0.75520062 1.2734865 -0.17675593 4286578816
-0.24438691 1.9108464 -0.15759955 4286578816
-0.25132155 1.9180386 -0.15717314 4286578816
-0.59004807 1.5882047 -0.10241129 4286578816
-0.25118637 1.9250956 -0.1567461 4286578816
-0.59711766 1.5883404 -0.10241194 4286578816
-1.6033061 0.75040704 -0.10426532 4286578816
-1.6317203 0.74389195 -0.10469492 4286578816
-1.6207778 0.76133102 -0.10362633 4286578816
-1.6243804 0.75787038 -0.10384016 4286578816
-1.6279829 0.75440973 -0.10405402 4286578816
-1.6419871 0.76173753 -0.10362823 4286578816
-1.6346471 0.77571565 -0.1027735 4286578816
-1.6382496 0.772255 -0.10298733 4286578816
-1.6418521 0.76879436 -0.1032012 4286578816
-1.0390313 1.4092236 -0.16389051 4286578816
-1.0424988 1.4128196 -0.16367732 4286578816
-1.4423993 1.0274746 -0.16745038 4286578816
-1.0495684 1.4129552 -0.16367796 4286578816
-0.85989785 1.7149913 -0.1802344 4286578816
-0.86350036 1.7115307 -0.18044825 4286578816
-0.84896111 1.7321283 -0.17417495 4286578816
-0.85256362 1.7286675 -0.1743888 4286578816
-0.85616612 1.7252069 -0.17460264 4286578816
-0.85976863 1.7217462 -0.17481649 4286578816
-0.84522367 1.7426457 -0.17353407 4286578816
-0.84882617 1.7391851 -0.17374791 4286578816
-0.8628304 1.7465129 -0.17332214 4286578816
-0.86643291 1.7430521 -0.17353599 4286578816
-1.3131716 1.3124166 -0.17509815 4286578816
-1.3202417 1.3125521 -0.17509878 4286578816
-1.3273113 1.3126876 -0.17509942 4286578816
-1.5267832 1.2373459 -0.15486042 4286578816
-1.5303857 1.2338853 -0.15507428 4286578816
-1.5194428 1.2513239 -0.15400572 4286578816
-1.5230453 1.2478632 -0.15421955 4286578816
-1.5266478 1.2444026 -0.15443341 4286578816
-1.5229099 1.2549202 -0.15379252 4286578816
-1.5299799 1.2550557 -0.15379314 4286578816
-1.53705 1.2551914 -0.15379377 4286578816
-1.5406525 1.2517307 -0.15400763 4286578816
-1.8301818 1.2748327 -0.092862174 4286578816
-1.8372519 1.2749684 -0.0928628 4286578816
-1.2064226 1.9007416 -0.15440364 4286578816
-1.2100251 1.8972808 -0.1546175 4286578816
-1.2136276 1.8938202 -0.15483133 4286578816
-1.8513911 1.275239 -0.092864081 4286578816
-1.8584611 1.2753747 -0.092864737 4286578816
-1.7499812 1.5846106 -0.14415111 4286578816
-1.7571862 1.5776892 -0.1445788 4286578816
-1.7571924 1.5773872 -0.13958792 4286578816
-1.7498524 1.5913655 -0.13873319 4286578816
-1.7534487 1.5882068 -0.1439379 4286578816
-1.7534549 1.5879048 -0.13894702 4286578816
-1.7570512 1.584746 -0.14415173 4286578816
-1.7570574 1.584444 -0.13916089 4286578816
-1.7605188 1.5883423 -0.14393853 4286578816
-1.7641208 1.5848817 -0.14415239 4286578816
