# .PCD v0.7 - Point Cloud Data file format
VERSION 0.7
FIELDS x y z rgb
SIZE 4 4 4 4
TYPE F F F U
COUNT 1 1 1 1
WIDTH 200
HEIGHT 1
VIEWPOINT 0 0 0 1 0 0 0
POINTS 200
DATA ascii
0.87321591 0.64767045 -0.17112729 4286578816
0.87197471 0.64283526 -0.17141026 4286578816
0.44745278 0.63853127 -0.17932513 4286578816
0.44385052 0.64460385 -0.17894101 4286578816
0.58931708 1.2953283 -0.18581995 4286578816
0.58571482 1.3014009 -0.18543586 4286578816
0.58211279 1.3074735 -0.18505177 4286578816
0.58087158 1.3026383 -0.18533474 4286578816
0.57851076 1.3135463 -0.18466768 4286578816
0.56870222 1.2954429 -0.18569842 4286578816
0.56385875 1.2966803 -0.1855973 4286578816
0.56025672 1.302753 -0.18521321 4286578816
0.55078912 1.5473318 -0.17049775 4286578816
0.5484283 1.5582397 -0.16983068 4286578816
0.53501773 1.5462091 -0.17047736 4286578816
0.53017426 1.5474465 -0.17037621 4286578816
0.52657223 1.5535192 -0.16999212 4286578816
0.52048755 1.5499215 -0.17017397 4286578816
0.51800489 1.540251 -0.17073992 4286578816
0.51440287 1.5463238 -0.17035583 4286578816
0.50955939 1.5475612 -0.17025468 4286578816
0.21853065 0.91487849 -0.18652976 4286578816
0.21616983 0.92578626 -0.18586266 4286578816
0.21256781 0.9318589 -0.18547857 4286578816
0.2113266 0.92702377 -0.18576154 4286578816
0.20512009 0.90284777 -0.18717641 4286578816
0.20896578 0.9379316 -0.18509448 4286578816
0.20151806 0.90892047 -0.18679231 4286578816
0.20536351 0.9440043 -0.18471038 4286578816
0.079838276 0.61424315 -0.1837455 4286578816
0.072633982 0.62638843 -0.18297732 4286578816
0.067790508 0.62762594 -0.1828762 4286578816
0.05925107 0.61405855 -0.17863303 4286578816
0.058009863 0.60922343 -0.17891598 4286578816
0.1824677 1.3336505 -0.1161418 4286578816
0.17774606 1.3554662 -0.11480766 4286578816
0.1752634 1.3457959 -0.1153736 4286578816
0.16781592 1.3167846 -0.11707144 4286578816
0.17166138 1.3518685 -0.1149895 4286578816
0.16421366 1.3228573 -0.11668734 4286578816
0.16805935 1.3579412 -0.1146054 4286578816
0.1668179 1.3531059 -0.11488838 4286578816
0.16061163 1.3289299 -0.11630324 4286578816
0.16197467 1.3543434 -0.11478724 4286578816
0.1570096 1.3350025 -0.11591914 4286578816
0.1571312 1.3555808 -0.11468612 4286578816
0.15340734 1.3410752 -0.11553504 4286578816
0.14980531 1.3471479 -0.11515094 4286578816
0.14620328 1.3532206 -0.11476684 4286578816
0.22537804 1.6874406 -0.16529712 4286578816
-0.13445973 0.90775549 -0.19501147 4286578816
-0.13557911 0.92349851 -0.19406143 4286578816
-0.14054441 0.90415776 -0.19519332 4286578816
-0.14042282 0.92473602 -0.19396031 4286578816
-0.14538789 0.90539521 -0.1950922 4286578816
-0.14526606 0.92597342 -0.19385919 4286578816
-0.15023112 0.90663266 -0.19499108 4286578816
-0.15010953 0.92721093 -0.19375804 4286578816
-0.15135074 0.9223758 -0.19404101 4286578816
-0.1550746 0.90787017 -0.19488993 4286578816
-0.15619397 0.92361319 -0.19393989 4286578816
-0.16115904 0.90427238 -0.19507179 4286578816
-0.36652565 0.8276419 -0.19351453 4286578816
-0.37745357 0.82528156 -0.19359526 4286578816
-0.25764394 1.413828 -0.17400479 4286578816
-0.26248741 1.4150655 -0.17390367 4286578816
-0.26857209 1.4114677 -0.1740855 4286578816
-0.27341557 1.4127052 -0.17398438 4286578816
-0.2782588 1.4139426 -0.17388326 4286578816
-0.28310227 1.4151801 -0.17378214 4286578816
-0.28918695 1.4115822 -0.17396396 4286578816
-0.29527164 1.4079845 -0.17414582 4286578816
-0.29887366 1.4140571 -0.17376173 4286578816
-0.44131804 1.0992155 -0.17681736 4286578816
-0.44616151 1.1004529 -0.17671624 4286578816
-0.45100498 1.1016904 -0.17661512 4286578816
-0.45584822 1.1029279 -0.176514 4286578816
-0.45945048 1.1090006 -0.17612988 4286578816
-0.4619329 1.0993302 -0.17669582 4286578816
-0.46677613 1.1005676 -0.1765947 4286578816
-0.46662688 1.1208467 -0.17037073 4286578816
-0.57165909 0.77039266 -0.17076042 4286578816
-0.5729003 0.76555741 -0.1710434 4286578816
-0.5727787 0.78613579 -0.16981035 4286578816
-0.57774377 0.76679492 -0.17094225 4286578816
-0.57762194 0.78737319 -0.16970924 4286578816
-0.58258724 0.76803231 -0.17084113 4286578816
-0.58743072 0.76926982 -0.17074001 4286578816
-0.58730888 0.78984815 -0.169507 4286578816
-0.59339356 0.78625035 -0.16968882 4286578816
-0.5982368 0.7874878 -0.1695877 4286578816
-0.60196066 0.77298218 -0.17043662 4286578816
-0.60320187 0.76814705 -0.17071959 4286578816
-0.60308027 0.78872532 -0.16948658 4286578816
-0.60556293 0.77905494 -0.17005253 4286578816
-0.60804558 0.76938456 -0.17061847 4286578816
-0.64679551 1.0237819 -0.19522396 4286578816
-0.65288019 1.020184 -0.19540581 4286578816
-0.65772367 1.0214216 -0.19530469 4286578816
-0.66256714 1.0226591 -0.19520354 4286578816
-0.66741037 1.0238965 -0.19510242 4286578816
-0.67349529 1.0202988 -0.19528425 4286578816
-0.67833853 1.0215362 -0.19518313 4286578816
-0.683182 1.0227737 -0.19508201 4286578816
-0.68926644 1.0191759 -0.19526386 4286578816
-0.7939167 0.70838237 -0.16823271 4286578816
-0.57279205 1.5890278 -0.10664884 4286578816
-0.79875994 0.70961976 -0.16813159 4286578816
-0.57763553 1.5902653 -0.10654771 4286578816
-0.80360341 0.71085727 -0.16803044 4286578816
-0.58372021 1.5866675 -0.10672956 4286578816
-0.80968809 0.70725948 -0.16821229 4286578816
-0.58856368 1.5879049 -0.10662843 4286578816
-0.59340692 1.5891424 -0.10652731 4286578816
-0.59825039 1.59038 -0.10642617 4286578816
-0.76306129 1.2544284 -0.18074974 4286578816
-1.0212224 0.62792885 -0.18180978 4286578816
-1.0224636 0.62309361 -0.18209276 4286578816
-1.0237048 0.61825848 -0.18237573 4286578816
-1.0297897 0.61466068 -0.18255755 4286578816
-0.85890245 1.6877029 -0.18429565 4286578816
-0.86498737 1.6841052 -0.18447751 4286578816
-0.87467408 1.6865802 -0.18427527 4286578816
-0.87951732 1.6878176 -0.18417412 4286578816
-0.88560224 1.6842198 -0.18435597 4286578816
-0.89044571 1.6854572 -0.18425485 4286578816
-0.89528894 1.6866947 -0.18415371 4286578816
-0.90013242 1.6879323 -0.18405259 4286578816
-1.0628092 1.4128656 -0.15956587 4286578816
-1.0640504 1.4080304 -0.15984884 4286578816
-1.2774668 0.57547837 -0.19354707 4286578816
-1.278708 0.57064313 -0.19383004 4286578816
-1.2799494 0.565808 -0.19411302 4286578816
-1.2811906 0.56097275 -0.19439599 4286578816
-1.0701351 1.4044327 -0.16003069 4286578816
-1.2872751 0.55737507 -0.19457781 4286578816
-1.2885165 0.55253983 -0.19486079 4286578816
-1.2897577 0.5477047 -0.19514376 4286578816
-1.2958424 0.5441069 -0.19532561 4286578816
-1.2970839 0.53927177 -0.19560859 4286578816
-1.3054078 0.56716007 -0.19389033 4286578816
-1.3078904 0.55748969 -0.19445628 4286578816
-1.3152161 0.54905677 -0.19492111 4286578816
-1.3156953 1.3131859 -0.1741533 4286578816
-1.3205385 1.3144233 -0.17405218 4286578816
-1.3253818 1.3156608 -0.17395103 4286578816
-1.4203343 1.0241675 -0.16585296 4286578816
-1.4264188 1.0205697 -0.16603482 4286578816
-1.4312625 1.0218072 -0.1659337 4286578816
-1.2116568 1.9006095 -0.15454242 4286578816
-1.212898 1.8957744 -0.15482539 4286578816
-1.4361057 1.0230446 -0.16583258 4286578816
-1.4421906 1.019447 -0.1660144 4286578816
-1.4445515 1.0303547 -0.16534734 4286578816
-1.4518776 1.0219219 -0.16581216 4286578816
-1.4531188 1.0170866 -0.16609514 4286578816
-1.4567208 1.0231594 -0.16571105 4286578816
-1.4615641 1.0243968 -0.1656099 4286578816
-1.6070342 0.75319374 -0.1059239 4286578816
-1.6153579 0.78108197 -0.10420565 4286578816
-1.6165991 0.77624685 -0.10448862 4286578816
-1.6178403 0.7714116 -0.10477159 4286578816
-1.6203227 0.76174122 -0.10533754 4286578816
-1.6264076 0.7581436 -0.10551939 4286578816
-1.6276488 0.75330836 -0.10580236 4286578816
-1.5208564 1.256236 -0.15639013 4286578816
-1.5220976 1.2514008 -0.1566731 4286578816
-1.5233388 1.2465656 -0.15695605 4286578816
-1.5257001 1.2574735 -0.15628901 4286578816
-1.5306649 1.2381327 -0.15742087 4286578816
-1.5280604 1.2683812 -0.15562192 4286578816
-1.5305433 1.2587109 -0.15618786 4286578816
-1.5341454 1.2647836 -0.15580377 4286578816
-1.5366278 1.2551132 -0.15636972 4286578816
-1.541471 1.2563506 -0.1562686 4286578816
-1.5427127 1.2515154 -0.15655154 4286578816
-1.5463147 1.2575881 -0.15616748 4286578816
-1.8236613 1.2579628 -0.094493695 4286578816
-1.745728 1.5873477 -0.14530692 4286578816
-1.8297458 1.2543651 -0.094675548 4286578816
-1.7505713 1.5885851 -0.1452058 4286578816
-1.8345895 1.2556026 -0.094574399 4286578816
-1.7541456 1.5943587 -0.13983074 4286578816
-1.7553868 1.5895233 -0.14011371 4286578816
-1.7566557 1.5849874 -0.14538765 4286578816
-1.756628 1.5846882 -0.14039668 4286578816
-1.7578969 1.5801523 -0.14567062 4286578816
-1.8344679 1.2761809 -0.093341388 4286578816
-1.8394327 1.2568401 -0.09447328 4286578816
-1.762713 1.5810905 -0.14057854 4286578816
-1.8393111 1.2774183 -0.093240269 4286578816
-1.8442764 1.2580775 -0.094372161 4286578816
-1.8453956 1.2738206 -0.093422122 4286578816
-1.8503609 1.2544798 -0.094554015 4286578816
-1.8502393 1.2750582 -0.093320973 4286578816
-1.8539629 1.2605525 -0.094169892 4286578816
-1.8552041 1.2557173 -0.094452865 4286578816
-1.8550825 1.2762955 -0.093219854 4286578816
-1.8600478 1.2569547 -0.094351746 4286578816
-1.8599262 1.2775331 -0.093118735 4286578816
