# .PCD v0.7 - Point Cloud Data file format
VERSION 0.7
FIELDS x y z rgb
SIZE 4 4 4 4
TYPE F F F U
COUNT 1 1 1 1
WIDTH 301
HEIGHT 1
VIEWPOINT 0 0 0 1 0 0 0
POINTS 301
DATA ascii
1.4348192 0.57950902 -0.16773203 4286578816
1.4173324 0.92373204 -0.16227305 4286578816
1.412727 0.92567492 -0.1621497 4286578816
1.4029845 0.9029839 -0.16849023 4286578816
1.4100684 0.93221533 -0.16175646 4286578816
1.4022726 0.91412187 -0.16782713 4286578816
1.4003259 0.90952438 -0.16809699 4286578816
1.3930618 0.91800767 -0.16758043 4286578816
1.1301413 0.71917534 -0.16391885 4286578816
1.2941183 1.1349094 -0.18457437 4286578816
1.2941269 1.1346128 -0.17958316 4286578816
1.2914597 1.1414498 -0.18418112 4286578816
1.2914683 1.1411532 -0.17918995 4286578816
1.2888182 1.147397 -0.17380553 4286578816
1.2868629 1.1430962 -0.1790666 4286578816
1.107826 0.71775192 -0.16396517 4286578816
1.2861511 1.1542341 -0.1784035 4286578816
1.2842042 1.1496365 -0.17867339 4286578816
1.2842128 1.1493399 -0.17368218 4286578816
1.1032205 0.71969479 -0.16384181 4286578816
1.2815456 1.156177 -0.17828014 4286578816
1.2788785 1.1630139 -0.18287811 4286578816
1.278887 1.1627173 -0.17788693 4286578816
0.88964725 0.62584901 -0.17406133 4286578816
0.88504171 0.62779194 -0.17393798 4286578816
0.88309503 0.6231944 -0.17420784 4286578816
0.87725472 0.60940188 -0.17501745 4286578816
0.8753078 0.60480434 -0.17528731 4286578816
0.88238311 0.63433236 -0.17354473 4286578816
0.88043642 0.62973481 -0.17381462 4286578816
0.87459588 0.6159423 -0.17462423 4286578816
0.87264919 0.61134475 -0.17489409 4286578816
0.8797245 0.64087272 -0.17315152 4286578816
0.87777781 0.63627529 -0.17342138 4286578816
0.86999059 0.61788523 -0.17450088 4286578816
0.87511921 0.64281559 -0.17302817 4286578816
0.86733198 0.62442553 -0.17410764 4286578816
0.86467338 0.63096601 -0.17371443 4286578816
0.86006784 0.63290888 -0.17359108 4286578816
0.85935616 0.6440469 -0.17292798 4286578816
0.85740924 0.63944936 -0.17319787 4286578816
0.89577055 1.1245788 -0.099355273 4286578816
0.88602805 1.1018878 -0.10569581 4286578816
0.89116502 1.1265217 -0.099231921 4286578816
0.88142252 1.1038307 -0.10557245 4286578816
0.88850641 1.1330621 -0.098838709 4286578816
0.87876391 1.1103711 -0.10517924 4286578816
0.88390112 1.135005 -0.098715357 4286578816
0.86105418 1.1070049 -0.10534894 4286578816
0.9238236 1.5301409 -0.17047051 4286578816
0.91799188 1.5160518 -0.16628894 4286578816
0.91603661 1.5117509 -0.17155001 4286578816
0.9192183 1.5320837 -0.17034715 4286578816
0.913378 1.5182912 -0.17115676 4286578816
0.91071939 1.5248318 -0.17076355 4286578816
0.91585636 1.5494657 -0.16429964 4286578816
0.90806055 1.5313721 -0.17037034 4286578816
0.49627399 0.64578778 -0.17721093 4286578816
0.49166846 0.64773065 -0.17708758 4286578816
0.48388124 0.62934059 -0.17816705 4286578816
0.48193455 0.62474304 -0.17843691 4286578816
0.47927594 0.63128352 -0.17804369 4286578816
0.47661734 0.63782382 -0.17765048 4286578816
0.47395849 0.6443643 -0.17725724 4286578816
0.46422458 0.62137669 -0.1786066 4286578816
0.4693532 0.64630717 -0.17713389 4286578816
0.46156597 0.62791699 -0.17821339 4286578816
0.45961928 0.62331957 -0.17848325 4286578816
0.46669459 0.65284765 -0.17674068 4286578816
0.45696044 0.62985992 -0.17809004 4286578816
0.46403599 0.65938807 -0.17634746 4286578816
0.45430207 0.63640046 -0.17769679 4286578816
0.44969654 0.63834339 -0.17757344 4286578816
0.44703794 0.64488381 -0.17718023 4286578816
0.50884676 1.011307 -0.19558203 4286578816
0.50495315 1.002112 -0.19612178 4286578816
0.50618815 1.0178474 -0.19518882 4286578816
0.50424147 1.0132499 -0.19545868 4286578816
0.50034785 1.0040549 -0.19599843 4286578816
0.49645424 0.99485987 -0.19653818 4286578816
0.50352955 1.0243878 -0.19479561 4286578816
0.49379563 1.0014004 -0.19614494 4286578816
0.49184871 0.99680281 -0.19641483 4286578816
0.49892426 1.0263307 -0.19467226 4286578816
0.49697733 1.0217333 -0.19494212 4286578816
0.48919034 1.0033432 -0.19602159 4286578816
0.60138416 1.2814336 -0.18469721 4286578816
0.49626541 1.0328712 -0.19427902 4286578816
0.4923718 1.0236762 -0.19481876 4286578816
0.4865315 1.0098836 -0.19562837 4286578816
0.48263788 1.0006886 -0.19616812 4286578816
0.60067225 1.2925715 -0.18403414 4286578816
0.59677887 1.2833765 -0.18457386 4286578816
0.48387313 1.0164241 -0.19523516 4286578816
0.47803259 1.0026314 -0.19604477 4286578816
0.47413898 0.99343646 -0.19658452 4286578816
0.59606671 1.2945144 -0.18391076 4286578816
0.59412003 1.289917 -0.18418065 4286578816
0.58827972 1.2761245 -0.18499026 4286578816
0.5863328 1.2715268 -0.18526012 4286578816
0.48121428 1.0229645 -0.19484192 4286578816
0.46953344 0.99537939 -0.19646114 4286578816
0.59146142 1.2964573 -0.18378744 4286578816
0.58367443 1.2780674 -0.18486691 4286578816
0.47855568 1.0295049 -0.19444871 4286578816
0.47660899 1.0249074 -0.19471857 4286578816
0.58685589 1.2984002 -0.18366405 4286578816
0.5849092 1.2938027 -0.18393394 4286578816
0.5790689 1.2800102 -0.18474355 4286578816
0.57641029 1.2865505 -0.18435031 4286578816
0.53311753 1.5432427 -0.16902214 4286578816
0.53045893 1.5497831 -0.1686289 4286578816
0.52780032 1.5563235 -0.16823569 4286578816
0.24678373 0.90423292 -0.1864692 4286578816
0.24996543 0.92456573 -0.18526635 4286578816
0.24217844 0.90617579 -0.18634585 4286578816
0.2453599 0.92650867 -0.18514299 4286578816
0.23562598 0.90352118 -0.18649235 4286578816
0.23880792 0.92385411 -0.18528953 4286578816
0.23102069 0.90546405 -0.186369 4286578816
0.24198961 0.94418705 -0.18408668 4286578816
0.23420238 0.92579705 -0.18516618 4286578816
0.22446847 0.90280944 -0.18651551 4286578816
0.23543739 0.94153243 -0.18423322 4286578816
0.22765017 0.92314237 -0.18531269 4286578816
0.21986318 0.90475231 -0.18639219 4286578816
0.23083186 0.94347537 -0.18410987 4286578816
0.22304463 0.92508531 -0.18518934 4286578816
0.21915126 0.91589034 -0.18572909 4286578816
0.21649265 0.92243063 -0.18533584 4286578816
0.21383381 0.92897111 -0.18494263 4286578816
0.081485748 0.61515373 -0.18332908 4286578816
0.21117544 0.93551153 -0.18454942 4286578816
0.076880455 0.6170966 -0.18320572 4286578816
0.074221849 0.62363696 -0.18281251 4286578816
0.071563244 0.63017738 -0.1824193 4286578816
0.061829329 0.60718977 -0.18376863 4286578816
0.059170485 0.61373025 -0.18337539 4286578816
0.056512117 0.62027067 -0.18298221 4286578816
0.051906586 0.6222136 -0.18285882 4286578816
0.17765093 1.3534291 -0.11457767 4286578816
0.17375731 1.344234 -0.11511742 4286578816
0.16597009 1.3258439 -0.11619689 4286578816
0.1730454 1.355372 -0.11445432 4286578816
0.17109871 1.3507745 -0.11472418 4286578816
0.16331148 1.3323843 -0.11580368 4286578816
0.16136456 1.3277869 -0.11607354 4286578816
0.16843987 1.3573149 -0.11433097 4286578816
0.16649318 1.3527174 -0.11460083 4286578816
0.15870595 1.3343273 -0.11568033 4286578816
0.16383457 1.3592577 -0.11420762 4286578816
0.16188788 1.3546603 -0.11447748 4286578816
0.15604734 1.3408678 -0.11528709 4286578816
0.15533543 1.3520057 -0.11462399 4286578816
0.15338874 1.3474082 -0.11489388 4286578816
-0.10390592 0.9224208 -0.189796 4286578816
-0.13862228 0.90484691 -0.19578964 4286578816
-0.14322782 0.9067899 -0.19566628 4286578816
-0.14978004 0.90413517 -0.19581282 4286578816
-0.26064444 1.4120915 -0.17545503 4286578816
-0.26524997 1.4140345 -0.17533168 4286578816
-0.27180219 1.4113798 -0.17547819 4286578816
-0.26862049 1.4317129 -0.17427537 4286578816
-0.27446079 1.4179204 -0.17508498 4286578816
-0.27640772 1.4133228 -0.17535484 4286578816
-0.27322578 1.4336557 -0.17415202 4286578816
-0.2771194 1.4244606 -0.17469177 4286578816
-0.27906609 1.4198632 -0.17496163 4286578816
-0.2829597 1.4106681 -0.17550138 4286578816
-0.28880024 1.3968756 -0.17631099 4286578816
-0.279778 1.4310012 -0.17429852 4286578816
-0.28172493 1.4264036 -0.17456838 4286578816
-0.28756523 1.412611 -0.17537799 4286578816
-0.29145885 1.403416 -0.17591774 4286578816
-0.2843833 1.4329441 -0.17417517 4286578816
-0.29411745 1.4099565 -0.17552453 4286578816
-0.29677606 1.4164969 -0.17513129 4286578816
-0.56925941 0.77047193 -0.17298368 4286578816
-0.30138135 1.4184397 -0.17500794 4286578816
-0.45143938 1.101256 -0.17356408 4286578816
-0.45338631 1.0966585 -0.17383394 4286578816
-0.46402073 1.1228201 -0.17226106 4286578816
-0.46596742 1.1182226 -0.17253092 4286578816
-0.26311445 1.9068321 -0.15606841 4286578816
-0.26577306 1.9133724 -0.1556752 4286578816
-0.26771975 1.9087749 -0.15594506 4286578816
-0.27037859 1.9153154 -0.15555185 4286578816
-0.27303696 1.9218557 -0.15515861 4286578816
-0.65459251 1.0201497 -0.19807088 4286578816
-0.78495097 0.70944661 -0.17123151 4286578816
-0.2756958 1.9283962 -0.1547654 4286578816
-0.65919805 1.0220926 -0.19794753 4286578816
-0.7895565 0.71138954 -0.17110816 4286578816
-0.28030109 1.930339 -0.15464205 4286578816
-0.66380334 1.0240355 -0.19782418 4286578816
-0.79610848 0.70873487 -0.17125469 4286578816
-0.80071402 0.7106778 -0.17113131 4286578816
-0.80726624 0.70802325 -0.17127785 4286578816
-0.81187177 0.70996618 -0.1711545 4286578816
-0.81842375 0.70731151 -0.17130101 4286578816
-0.82302928 0.70925444 -0.17117766 4286578816
-0.5588479 1.588568 -0.10435074 4286578816
-0.56345344 1.5905108 -0.10422739 4286578816
-0.57000542 1.5878563 -0.10437389 4286578816
-0.57461095 1.5897992 -0.10425054 4286578816
-0.58116317 1.5871446 -0.10439708 4286578816
-0.5857687 1.5890875 -0.10427373 4286578816
-0.72797918 1.2567315 -0.17887732 4286578816
-0.59037399 1.5910304 -0.10415038 4286578816
-0.59232068 1.5864328 -0.10442024 4286578816
-0.73453116 1.2540767 -0.17902383 4286578816
-0.59692621 1.5883758 -0.10429686 4286578816
-0.73329639 1.2698122 -0.17809087 4286578816
-0.7391367 1.2560197 -0.17890048 4286578816
-0.7417953 1.2625601 -0.17850727 4286578816
-0.74374199 1.2579626 -0.17877713 4286578816
-0.74250722 1.2736981 -0.17784417 4286578816
-1.0157192 0.63940436 -0.18501583 4286578816
-1.0176661 0.63480681 -0.18528569 4286578816
-1.0215595 0.62561184 -0.18582544 4286578816
-1.0215509 0.62531525 -0.18083423 4286578816
-1.0235064 0.6210143 -0.1860953 4286578816
-1.0234978 0.6207177 -0.18110412 4286578816
-1.0254533 0.61641675 -0.18636516 4286578816
-1.0254447 0.61612016 -0.18137398 4286578816
-1.0273998 0.61181933 -0.18663505 4286578816
-0.75366473 1.2729863 -0.17786732 4286578816
-1.0360878 0.64257842 -0.18479228 4286578816
-1.0380347 0.63798088 -0.18506214 4286578816
-1.0399811 0.63338345 -0.18533203 4286578816
-1.0419281 0.62878591 -0.18560189 4286578816
-1.043875 0.62418836 -0.18587175 4286578816
-1.0458214 0.61959094 -0.18614164 4286578816
-1.2780139 0.57182437 -0.19859976 4286578816
-1.2819073 0.5626294 -0.19913951 4286578816
-1.2818987 0.56233281 -0.19414833 4286578816
-1.2838542 0.55803198 -0.19940937 4286578816
-1.2838457 0.55773538 -0.19441819 4286578816
-1.2858012 0.55343443 -0.19967923 4286578816
-1.2877476 0.54883701 -0.19994912 4286578816
-1.2904065 0.5553773 -0.19955587 4286578816
-1.2903979 0.55508071 -0.1945647 4286578816
-1.2923529 0.55077988 -0.19982576 4286578816
-1.2923443 0.55048329 -0.19483456 4286578816
-1.2942913 0.54588562 -0.19510445 4286578816
-1.2962382 0.5412882 -0.19537431 4286578816
-1.3022673 0.56550705 -0.19392475 4286578816
-1.310766 0.5582549 -0.19434115 4286578816
-0.84860325 1.7425901 -0.17484245 4286578816
-0.85054994 1.7379925 -0.17511231 4286578816
-0.85249686 1.7333951 -0.17538217 4286578816
-0.85639048 1.7242 -0.17592192 4286578816
-0.85833716 1.7196025 -0.17619178 4286578816
-0.87268472 1.6988543 -0.18240899 4286578816
-0.87463164 1.6942568 -0.18267885 4286578816
-0.86897159 1.7457641 -0.1746189 4286578816
-1.0360105 1.4134829 -0.16402543 4286578816
-1.0425627 1.4108284 -0.16417196 4286578816
-1.047168 1.4127713 -0.16404861 4286578816
-1.4233716 1.0230093 -0.16653001 4286578816
-1.4299238 1.0203545 -0.16667655 4286578816
-1.3119237 1.3134239 -0.17450726 4286578816
-1.4345295 1.0222975 -0.1665532 4286578816
-1.4391348 1.0242404 -0.16642985 4286578816
-1.3211348 1.3173096 -0.17426056 4286578816
-1.4456871 1.0215857 -0.16657636 4286578816
-1.3198998 1.333045 -0.17332759 4286578816
-1.4483454 1.0281261 -0.16618314 4286578816
-1.4502923 1.0235286 -0.166453 4286578816
-1.4568446 1.020874 -0.16659951 4286578816
-1.6057622 0.75417453 -0.10706045 4286578816
-1.6116025 0.74038202 -0.10787006 4286578816
-1.2104676 1.9000839 -0.15484533 4286578816
-1.5229757 1.2492692 -0.15291372 4286578816
-1.5249312 1.2449683 -0.15817478 4286578816
-1.5268776 1.2403708 -0.15844464 4286578816
-1.5256431 1.2561064 -0.15751168 4286578816
-1.5334303 1.2377162 -0.15859118 4286578816
-1.5302484 1.2580492 -0.15738833 4286578816
-1.5368006 1.2553947 -0.15753484 4286578816
-1.5433528 1.2527399 -0.15768138 4286578816
-1.8393776 1.2548951 -0.096939854 4286578816
-1.8439834 1.2568381 -0.096816503 4286578816
-1.8505356 1.2541835 -0.096963011 4286578816
-1.7347395 1.5830395 -0.14273399 4286578816
-1.7366865 1.5784421 -0.14300385 4286578816
-1.7373979 1.5895798 -0.14234078 4286578816
-1.7439501 1.5869253 -0.14248729 4286578816
-1.7485554 1.5888683 -0.14236394 4286578816
-1.7512143 1.5954087 -0.14197072 4286578816
-1.7551081 1.5862136 -0.14251044 4286578816
-1.7570546 1.5816162 -0.14278033 4286578816
-1.7590015 1.5770187 -0.14305019 4286578816
-1.7597129 1.5881565 -0.14238709 4286578816
-1.7643187 1.5900993 -0.14226374 4286578816
-1.7708709 1.5874448 -0.14241028 4286578816
-1.7715828 1.5985827 -0.14174718 4286578816
-1.7735298 1.5939853 -0.14201704 4286578816
-1.7754762 1.5893877 -0.1422869 4286578816
-1.7774231 1.5847902 -0.14255679 4286578816
-1.7866337 1.588676 -0.14231008 4286578816
