# .PCD v0.7 - Point Cloud Data file format
VERSION 0.7
FIELDS x y z rgb
SIZE 4 4 4 4
TYPE F F F U
COUNT 1 1 1 1
WIDTH 266
HEIGHT 1
VIEWPOINT 0 0 0 1 0 0 0
POINTS 266
DATA ascii
1.4230448 0.55741394 -0.16761252 4286578816
1.4227403 0.56239522 -0.16730252 4286578816
1.4423987 0.5685879 -0.16685951 4286578816
0.86861634 0.61437213 -0.17567196 4286578816
0.86831188 0.61935294 -0.17536202 4286578816
0.86829758 0.61904156 -0.17037174 4286578816
0.86332119 0.61905015 -0.17539528 4286578816
0.86301684 0.62403119 -0.17508528 4286578816
0.86300254 0.62371981 -0.17009503 4286578816
0.85802615 0.62372839 -0.17511854 4286578816
0.86269808 0.62870085 -0.16978505 4286578816
0.85772169 0.6287092 -0.17480856 4286578816
0.87706137 0.63957179 -0.1690653 4286578816
-0.4903481 0.55749762 -0.19314939 4286578816
-0.48566198 0.56278193 -0.19280612 4286578816
-0.49065256 0.5624789 -0.19283938 4286578816
1.8643962 0.70484674 -0.087005794 4286578816
0.48220134 0.62591231 -0.17606315 4286578816
-0.48596644 0.56776273 -0.19249615 4286578816
1.8591011 0.70952499 -0.086729079 4286578816
0.4769063 0.63059056 -0.17578644 4286578816
-0.48127985 0.57304704 -0.19215292 4286578816
1.8587966 0.71450579 -0.086419106 4286578816
1.8538059 0.714203 -0.086452365 4286578816
0.47161102 0.63526857 -0.17550972 4286578816
-0.47659373 0.57833087 -0.19180968 4286578816
1.8535014 0.71918404 -0.086142361 4286578816
-1.2909915 0.54389322 -0.1963011 4286578816
-1.2959824 0.54359019 -0.19633436 4286578816
-1.291296 0.5488745 -0.19599113 4286578816
-1.3162496 0.54735959 -0.19615743 4286578816
-1.2866099 0.55415833 -0.1956479 4286578816
1.1435006 0.70543087 -0.15917915 4286578816
1.1385099 0.70512784 -0.15921241 4286578816
1.1335192 0.70482481 -0.15924567 4286578816
1.1235378 0.70421898 -0.15931222 4286578816
-1.3068771 0.55792773 -0.19547093 4286578816
-1.2772231 0.56503785 -0.19995168 4286578816
-1.2772374 0.56472647 -0.1949614 4286578816
-1.3021908 0.5632118 -0.1951277 4286578816
-1.3071816 0.56290877 -0.19516096 4286578816
-1.2975044 0.56849587 -0.19478446 4286578816
-1.302495 0.56819284 -0.19481772 4286578816
1.1276295 0.71977651 -0.16333929 4286578816
-1.2728553 0.57499158 -0.19430819 4286578816
-1.0248711 0.61442173 -0.18111473 4286578816
-1.0298476 0.61443031 -0.18613827 4286578816
-1.0498104 0.61321843 -0.18627131 4286578816
-1.0251613 0.61971414 -0.18579504 4286578816
-1.0451241 0.61850226 -0.18592808 4286578816
-1.0204749 0.62499821 -0.18545181 4286578816
-1.0404377 0.62378657 -0.18558484 4286578816
-1.0157886 0.63028228 -0.18510857 4286578816
-1.0410466 0.63374865 -0.18496487 4286578816
-0.78957915 0.69869864 -0.1751785 4286578816
-0.77990222 0.7042855 -0.17480201 4286578816
-0.78489304 0.70398247 -0.17483526 4286578816
-0.78988361 0.70367944 -0.17486852 4286578816
-0.79487443 0.70337665 -0.17490178 4286578816
-0.7851975 0.70896375 -0.17452529 4286578816
-0.80016947 0.7080549 -0.17462507 4286578816
-0.80516028 0.70775187 -0.17465833 4286578816
-0.81015086 0.70744884 -0.17469159 4286578816
-0.81514168 0.70714605 -0.17472485 4286578816
-0.82013226 0.70684302 -0.17475811 4286578816
-0.84010983 0.70531976 -0.16990089 4286578816
-0.80576921 0.71771395 -0.17403838 4286578816
-0.78112006 0.7242099 -0.17356208 4286578816
-0.80108285 0.72299826 -0.17369512 4286578816
-0.81635928 0.72707021 -0.17348495 4286578816
1.4376258 0.89420187 -0.16158178 4286578816
1.4376113 0.8938905 -0.1565915 4286578816
1.4126579 0.89237559 -0.1567578 4286578816
1.4572697 0.90008342 -0.15614846 4286578816
1.4323306 0.89888012 -0.16130504 4286578816
1.4323162 0.89856875 -0.15631476 4286578816
1.4320261 0.90386093 -0.16099507 4286578816
1.4270355 0.90355814 -0.16102833 4286578816
-1.6343071 0.74306452 -0.1047028 4286578816
-1.6046674 0.74986351 -0.10419327 4286578816
-1.6296213 0.74834859 -0.10435957 4286578816
-0.32738352 0.84329808 -0.18987387 4286578816
-0.3573277 0.84148037 -0.19007343 4286578816
-1.6408207 0.76766717 -0.10318616 4286578816
-1.6361339 0.77295101 -0.10284293 4286578816
0.23504376 0.90243709 -0.18456557 4286578816
-0.106745 0.92199647 -0.18933767 4286578816
-0.11173582 0.92169344 -0.18937093 4286578816
-0.13169861 0.9204818 -0.18950397 4286578816
1.7228775 1.1374606 -0.080453485 4286578816
1.7228631 1.1371492 -0.075463235 4286578816
1.7178867 1.1371576 -0.080486745 4286578816
1.722573 1.1424414 -0.080143511 4286578816
1.7225586 1.14213 -0.075153261 4286578816
1.7172779 1.1471196 -0.079866767 4286578816
1.751894 1.15391 -0.074333727 4286578816
1.7469032 1.153607 -0.074366987 4286578816
1.7369362 1.1533126 -0.079423755 4286578816
1.7369218 1.1530012 -0.074433506 4286578816
1.7319312 1.1526982 -0.074466765 4286578816
1.7169734 1.1521007 -0.079556793 4286578816
1.716959 1.1517893 -0.074566543 4286578816
1.7119827 1.1517977 -0.079590052 4286578816
1.3479053 1.1349767 -0.16685268 4286578816
1.3429146 1.1346737 -0.16688594 4286578816
1.3329475 1.1343793 -0.17194271 4286578816
1.3329332 1.1340679 -0.16695246 4286578816
1.3279568 1.1340762 -0.17197597 4286578816
1.3279425 1.1337649 -0.16698572 4286578816
1.3229661 1.1337734 -0.17200926 4286578816
1.3229518 1.1334618 -0.16701898 4286578816
1.3179611 1.133159 -0.16705224 4286578816
1.7366174 1.1579822 -0.074123532 4286578816
1.7316411 1.1579908 -0.079147041 4286578816
1.7266361 1.1573764 -0.07419005 4286578816
1.7216454 1.1570734 -0.07422331 4286578816
1.7166691 1.157082 -0.079246819 4286578816
1.7166547 1.1567706 -0.074256569 4286578816
1.711664 1.1564676 -0.074289829 4286578816
1.7066733 1.1561645 -0.074323088 4286578816
1.3376337 1.1396633 -0.17159948 4286578816
1.3176709 1.1384517 -0.17173252 4286578816
1.3126659 1.1378373 -0.16677549 4286578816
-0.64364624 1.0200149 -0.19478428 4286578816
-0.64863706 1.0197121 -0.19481754 4286578816
-0.65362763 1.0194091 -0.1948508 4286578816
-0.66360903 1.0188032 -0.19491732 4286578816
-0.66859984 1.0185002 -0.19495058 4286578816
-0.67359042 1.0181972 -0.19498384 4286578816
-0.67858124 1.0178944 -0.1950171 4286578816
1.7313223 1.1626602 -0.073846817 4286578816
1.7113595 1.1614486 -0.073979855 4286578816
1.3123759 1.1431297 -0.1714558 4286578816
0.92787659 1.115131 -0.099162757 4286578816
0.90292311 1.1136163 -0.099329084 4286578816
0.89793241 1.1133133 -0.099362344 4286578816
1.7060645 1.1661268 -0.07370311 4286578816
1.70576 1.1711076 -0.073393136 4286578816
1.3466876 1.1549009 -0.16561276 4286578816
1.3416969 1.1545981 -0.16564602 4286578816
1.3367062 1.1542951 -0.16567928 4286578816
1.3317155 1.1539921 -0.16571254 4286578816
1.3217484 1.1536976 -0.17076933 4286578816
1.3167577 1.1533948 -0.17080259 4286578816
1.7204275 1.1769978 -0.072983384 4286578816
1.3264203 1.1586703 -0.16543582 4286578816
1.740086 1.1831905 -0.072540373 4286578816
1.7198187 1.1869599 -0.072363436 4286578816
-1.4303172 1.020394 -0.16696468 4286578816
-1.4353077 1.0200909 -0.16699794 4286578816
-1.4402986 1.0197881 -0.1670312 4286578816
-1.4452891 1.0194851 -0.16706446 4286578816
-1.45028 1.0191821 -0.16709772 4286578816
-1.4552705 1.0188793 -0.16713098 4286578816
-1.4455936 1.0244664 -0.16675445 4286578816
-0.44801855 1.0959529 -0.17445329 4286578816
-0.45830441 1.1003278 -0.17420986 4286578816
-1.4465067 1.0394095 -0.16582453 4286578816
-0.45891333 1.1102902 -0.17358989 4286578816
-0.42927361 1.1170889 -0.17308033 4286578816
-0.43426442 1.1167861 -0.17311358 4286578816
-0.439255 1.1164831 -0.17314684 4286578816
-0.45921779 1.1152712 -0.17327991 4286578816
1.6732262 1.383773 -0.13536108 4286578816
1.6479683 1.3872396 -0.13521737 4286578816
1.6676266 1.3934323 -0.13477436 4286578816
1.6673222 1.3984135 -0.13446438 4286578816
1.6623316 1.3981105 -0.13449764 4286578816
-0.73311949 1.254563 -0.1804041 4286578816
-0.7381103 1.2542599 -0.18043736 4286578816
-0.74310088 1.2539569 -0.18047062 4286578816
-1.5285399 1.2347232 -0.15888119 4286578816
-1.5335305 1.2344202 -0.15891445 4286578816
-1.5385211 1.2341172 -0.15894771 4286578816
-1.5238535 1.240007 -0.15853795 4286578816
-1.5241721 1.2446769 -0.1532377 4286578816
-1.5441206 1.2437764 -0.15836102 4286578816
-1.5444252 1.2487575 -0.15805104 4286578816
-1.5247667 1.2549504 -0.157608 4286578816
-1.5297577 1.2546474 -0.15764126 4286578816
-1.5347483 1.2543446 -0.15767452 4286578816
-1.5397389 1.2540416 -0.15770778 4286578816
-1.5350525 1.2593254 -0.15736455 4286578816
-1.3125446 1.3090717 -0.17365909 4286578816
-1.3175352 1.3087686 -0.17369235 4286578816
-1.3228304 1.3134469 -0.17341563 4286578816
-1.318753 1.328693 -0.17245242 4286578816
-1.3237438 1.32839 -0.17248568 4286578816
-0.25661802 1.4087876 -0.1744186 4286578816
-0.2616086 1.4084848 -0.17445186 4286578816
-0.27158999 1.407879 -0.17451838 4286578816
-0.27658081 1.407576 -0.17455164 4286578816
-0.2865622 1.4069701 -0.17461815 4286578816
0.91438496 1.5101789 -0.1697329 4286578816
0.93404329 1.5163718 -0.16928986 4286578816
0.9140805 1.51516 -0.16942292 4286578816
0.90878534 1.5198382 -0.16914618 4286578816
0.93343449 1.5263339 -0.16866991 4286578816
0.92345309 1.5257281 -0.16873643 4286578816
0.9184624 1.5254251 -0.16876969 4286578816
0.908481 1.5248193 -0.16883621 4286578816
-1.0678947 1.4036051 -0.1620461 4286578816
-1.0632083 1.4088892 -0.16170284 4286578816
-1.0635128 1.4138702 -0.16139287 4286578816
-1.0644262 1.4288136 -0.16046295 4286578816
-1.069417 1.4285105 -0.16049621 4286578816
-1.074712 1.4331888 -0.16021946 4286578816
-1.0700257 1.4384729 -0.15987623 4286578816
0.53174281 1.5419468 -0.16885087 4286578816
0.53143835 1.5469278 -0.16854089 4286578816
0.52614331 1.5516061 -0.16826415 4286578816
1.7961072 1.6637241 -0.07745865 4286578816
1.7861258 1.6631182 -0.077525169 4286578816
1.7808306 1.6677963 -0.077248454 4286578816
1.7755356 1.6724745 -0.07697174 4286578816
1.7898988 1.6833454 -0.076251984 4286578816
1.7849081 1.6830426 -0.076285243 4286578816
1.7895944 1.6883265 -0.07594201 4286578816
-0.56341887 1.5864199 -0.10409844 4286578816
0.27278471 1.6815244 -0.16589469 4286578816
0.28246164 1.6871113 -0.16551819 4286578816
0.28684354 1.6973764 -0.16486499 4286578816
-1.1255252 1.6116413 -0.17427757 4286578816
0.28653908 1.7023576 -0.16455498 4286578816
-1.1258297 1.6166226 -0.1739676 4286578816
-1.7397869 1.5771798 -0.1431267 4286578816
-1.7597497 1.5759679 -0.14325973 4286578816
0.29122543 1.7076415 -0.16421175 4286578816
0.26627183 1.7061268 -0.16437805 4286578816
-1.7600543 1.5809489 -0.14294976 4286578816
-1.7800171 1.5797371 -0.1430828 4286578816
0.29591155 1.7129256 -0.16386852 4286578816
0.27594876 1.7117139 -0.16400155 4286578816
0.27095819 1.7114109 -0.16403481 4286578816
-1.1414108 1.625676 -0.17344743 4286578816
-1.7453864 1.5868388 -0.14254001 4286578816
-1.7503774 1.586536 -0.14257327 4286578816
-1.7553675 1.586233 -0.14260653 4286578816
-1.7603586 1.58593 -0.14263979 4286578816
-1.7653491 1.5856272 -0.14267305 4286578816
-1.7703402 1.5853242 -0.1427063 4286578816
-1.7753303 1.5850211 -0.14273956 4286578816
-1.7853119 1.5844153 -0.14280608 4286578816
0.2756443 1.7166947 -0.16369158 4286578816
-1.7506816 1.5915169 -0.14226329 4286578816
-1.7756345 1.5900022 -0.14242959 4286578816
0.28033066 1.721979 -0.16334835 4286578816
-1.7709491 1.5952863 -0.14208636 4286578816
0.839028 1.7618247 -0.17428407 4286578816
0.83901358 1.7615131 -0.16929379 4286578816
0.85868633 1.7680176 -0.17384103 4286578816
0.83872354 1.7668058 -0.17397407 4286578816
0.83870912 1.7664944 -0.16898379 4286578816
0.85339117 1.7726957 -0.17356431 4286578816
0.83342838 1.7714838 -0.17369735 4286578816
0.85308671 1.7776769 -0.17325431 4286578816
0.83312392 1.7764651 -0.17338738 4286578816
0.85278237 1.7826577 -0.17294434 4286578816
0.85276794 1.7823464 -0.16795409 4286578816
0.82782888 1.7811431 -0.17311066 4286578816
0.84747279 1.7870246 -0.16767734 4286578816
-0.85648775 1.7185863 -0.17684916 4286578816
-0.85679221 1.7235671 -0.17653918 4286578816
-0.88174558 1.7220525 -0.17670548 4286578816
-0.85210586 1.7288514 -0.17619595 4286578816
-0.87705946 1.7273365 -0.17636225 4286578816
